2.117803955078125000e+03  2.117803955078125000e+03  2.117803955078125000e+03  2.117803955078125000e+03  2.117803955078125000e+03  2.117803955078125000e+03  2.117803955078125000e+03  2.117803955078125000e+03  2.117803955078125000e+03  2.117803955078125000e+03  2.117803955078125000e+03  2.117803955078125000e+03  2.117803955078125000e+03  2.117803955078125000e+03  2.117803955078125000e+03  2.117803955078125000e+03  2.117803955078125000e+03  2.117803955078125000e+03  2.117803955078125000e+03  2.117851806640625000e+03  2.123607177734375000e+03  2.136193847656250000e+03  2.148169189453125000e+03  2.158447265625000000e+03  2.172777343750000000e+03  2.184076904296875000e+03  2.194377929687500000e+03  2.204713134765625000e+03  2.215210693359375000e+03  2.224152099609375000e+03  2.229322753906250000e+03  2.235515380859375000e+03  2.239104980468750000e+03  2.239851074218750000e+03  2.239431396484375000e+03  2.246245605468750000e+03  2.249309082031250000e+03  2.248323486328125000e+03  2.244125732421875000e+03  2.238333984375000000e+03  2.230818359375000000e+03  2.221753662109375000e+03  2.213782958984375000e+03  2.205314453125000000e+03  2.195989257812500000e+03  2.187882812500000000e+03  2.180503906250000000e+03  2.173135498046875000e+03  2.166671386718750000e+03  2.161432373046875000e+03  2.157262207031250000e+03  2.151892089843750000e+03  2.146386474609375000e+03  2.139029052734375000e+03  2.131230712890625000e+03  2.123455078125000000e+03  2.117053222656250000e+03  2.108231933593750000e+03  2.099247314453125000e+03  2.092445800781250000e+03  2.087504638671875000e+03  2.079976074218750000e+03  2.071888427734375000e+03  2.066979248046875000e+03  2.060802490234375000e+03  2.056493408203125000e+03  2.059698974609375000e+03  2.065281738281250000e+03  2.070791259765625000e+03  2.074862304687500000e+03  2.075893310546875000e+03  2.075583984375000000e+03  2.074112304687500000e+03  2.075341796875000000e+03  2.077301025390625000e+03  2.080430664062500000e+03  2.083298339843750000e+03  2.086348144531250000e+03  2.087905517578125000e+03  2.089654541015625000e+03  2.091012939453125000e+03  2.089284912109375000e+03  2.086860351562500000e+03  2.083160400390625000e+03  2.078409667968750000e+03  2.074859619140625000e+03  2.073215576171875000e+03  2.071573730468750000e+03  2.069439453125000000e+03  2.066478515625000000e+03  2.064004394531250000e+03  2.060519042968750000e+03  2.054381103515625000e+03  2.049395263671875000e+03  2.046060058593750000e+03  2.048327392578125000e+03  2.050127929687500000e+03  2.053439941406250000e+03  2.057743896484375000e+03  2.061644042968750000e+03  2.065153564453125000e+03  2.068954833984375000e+03  2.071555664062500000e+03  2.074501708984375000e+03  2.079407714843750000e+03  2.082918701171875000e+03  2.080971679687500000e+03  2.077813232421875000e+03  2.076998779296875000e+03  2.079289794921875000e+03  2.083834960937500000e+03  2.088578369140625000e+03  2.097005859375000000e+03  2.104012939453125000e+03
2.117803955078125000e+03  2.117803955078125000e+03  2.117803955078125000e+03  2.117803955078125000e+03  2.117803955078125000e+03  2.117803955078125000e+03  2.117803955078125000e+03  2.117803955078125000e+03  2.117803955078125000e+03  2.117803955078125000e+03  2.117803955078125000e+03  2.117803955078125000e+03  2.117803955078125000e+03  2.117803955078125000e+03  2.117803955078125000e+03  2.117803955078125000e+03  2.117803955078125000e+03  2.117803955078125000e+03  2.123042968750000000e+03  2.132867675781250000e+03  2.140473388671875000e+03  2.152638916015625000e+03  2.165776611328125000e+03  2.179304199218750000e+03  2.192619140625000000e+03  2.203676025390625000e+03  2.211036621093750000e+03  2.223128906250000000e+03  2.236350830078125000e+03  2.240481445312500000e+03  2.239177001953125000e+03  2.241776123046875000e+03  2.243684326171875000e+03  2.247532958984375000e+03  2.255690429687500000e+03  2.256091796875000000e+03  2.249145996093750000e+03  2.243238037109375000e+03  2.236662597656250000e+03  2.228502441406250000e+03  2.220664306640625000e+03  2.211985839843750000e+03  2.204662597656250000e+03  2.196492675781250000e+03  2.188151123046875000e+03  2.180194580078125000e+03  2.172582275390625000e+03  2.165336181640625000e+03  2.159328613281250000e+03  2.155447509765625000e+03  2.150652343750000000e+03  2.146493652343750000e+03  2.142135742187500000e+03  2.136798339843750000e+03  2.130805908203125000e+03  2.122848144531250000e+03  2.114959716796875000e+03  2.105964599609375000e+03  2.095145751953125000e+03  2.084259521484375000e+03  2.078149169921875000e+03  2.071172607421875000e+03  2.063931884765625000e+03  2.059525390625000000e+03  2.055286865234375000e+03  2.051393310546875000e+03  2.053601562500000000e+03  2.059934570312500000e+03  2.064508056640625000e+03  2.067513671875000000e+03  2.069202880859375000e+03  2.070126464843750000e+03  2.069833496093750000e+03  2.071183349609375000e+03  2.073309082031250000e+03  2.076650390625000000e+03  2.081002441406250000e+03  2.084424804687500000e+03  2.086484863281250000e+03  2.088064697265625000e+03  2.089641845703125000e+03  2.089315917968750000e+03  2.086992675781250000e+03  2.082218994140625000e+03  2.075950195312500000e+03  2.072891113281250000e+03  2.071210937500000000e+03  2.069945068359375000e+03  2.068409667968750000e+03  2.066044921875000000e+03  2.063849121093750000e+03  2.060326171875000000e+03  2.054089843750000000e+03  2.048393066406250000e+03  2.045812255859375000e+03  2.045794555664062500e+03  2.047941528320312500e+03  2.050733154296875000e+03  2.054671386718750000e+03  2.059510498046875000e+03  2.063399414062500000e+03  2.068152587890625000e+03  2.073049804687500000e+03  2.076701171875000000e+03  2.081815185546875000e+03  2.086107910156250000e+03  2.083534667968750000e+03  2.077362792968750000e+03  2.074955078125000000e+03  2.076316162109375000e+03  2.079645996093750000e+03  2.085135009765625000e+03  2.093275634765625000e+03  2.100617675781250000e+03
2.117803955078125000e+03  2.117803955078125000e+03  2.117803955078125000e+03  2.117803955078125000e+03  2.117803955078125000e+03  2.117803955078125000e+03  2.117803955078125000e+03  2.117803955078125000e+03  2.117803955078125000e+03  2.117803955078125000e+03  2.117803955078125000e+03  2.117803955078125000e+03  2.117803955078125000e+03  2.117803955078125000e+03  2.117803955078125000e+03  2.117803955078125000e+03  2.119738769531250000e+03  2.128376464843750000e+03  2.137231445312500000e+03  2.149094238281250000e+03  2.159662353515625000e+03  2.171108886718750000e+03  2.184919677734375000e+03  2.197430908203125000e+03  2.209484863281250000e+03  2.222201904296875000e+03  2.237451660156250000e+03  2.250722167968750000e+03  2.249179687500000000e+03  2.244072021484375000e+03  2.244769531250000000e+03  2.250319824218750000e+03  2.256263916015625000e+03  2.258470703125000000e+03  2.256488037109375000e+03  2.250328125000000000e+03  2.242267822265625000e+03  2.235119628906250000e+03  2.227166015625000000e+03  2.219084472656250000e+03  2.211901367187500000e+03  2.203423828125000000e+03  2.194280517578125000e+03  2.186026855468750000e+03  2.178109130859375000e+03  2.170757812500000000e+03  2.163704589843750000e+03  2.156929931640625000e+03  2.152428466796875000e+03  2.147026367187500000e+03  2.142518798828125000e+03  2.138709716796875000e+03  2.134665283203125000e+03  2.129702392578125000e+03  2.123988769531250000e+03  2.118505126953125000e+03  2.112429199218750000e+03  2.105894531250000000e+03  2.096536621093750000e+03  2.083976074218750000e+03  2.074228759765625000e+03  2.066463134765625000e+03  2.059833251953125000e+03  2.055666259765625000e+03  2.051958496093750000e+03  2.047210449218750000e+03  2.047785888671875000e+03  2.053614746093750000e+03  2.058679931640625000e+03  2.061626220703125000e+03  2.061998535156250000e+03  2.061354736328125000e+03  2.062837158203125000e+03  2.065731933593750000e+03  2.070894775390625000e+03  2.075589599609375000e+03  2.078826416015625000e+03  2.081887207031250000e+03  2.084037353515625000e+03  2.086297607421875000e+03  2.088062988281250000e+03  2.088535644531250000e+03  2.087373291015625000e+03  2.082321777343750000e+03  2.075225097656250000e+03  2.072182128906250000e+03  2.070215087890625000e+03  2.068906982421875000e+03  2.067327880859375000e+03  2.065675781250000000e+03  2.063690917968750000e+03  2.060196289062500000e+03  2.053052978515625000e+03  2.046565673828125000e+03  2.045745971679687500e+03  2.045764648437500000e+03  2.045723510742187500e+03  2.047393920898437500e+03  2.051431396484375000e+03  2.056351074218750000e+03  2.060772705078125000e+03  2.066422851562500000e+03  2.073392822265625000e+03  2.077843261718750000e+03  2.082310058593750000e+03  2.085434326171875000e+03  2.083882568359375000e+03  2.077869384765625000e+03  2.072338867187500000e+03  2.072270507812500000e+03  2.074897705078125000e+03  2.079427001953125000e+03  2.085332519531250000e+03  2.096447998046875000e+03
2.117803955078125000e+03  2.117803955078125000e+03  2.117803955078125000e+03  2.117803955078125000e+03  2.117803955078125000e+03  2.117803955078125000e+03  2.117803955078125000e+03  2.117803955078125000e+03  2.117803955078125000e+03  2.117803955078125000e+03  2.117803955078125000e+03  2.117803955078125000e+03  2.117803955078125000e+03  2.117803955078125000e+03  2.117976806640625000e+03  2.122061523437500000e+03  2.131870361328125000e+03  2.143987060546875000e+03  2.156468261718750000e+03  2.168194580078125000e+03  2.179312500000000000e+03  2.187434814453125000e+03  2.199685791015625000e+03  2.214936767578125000e+03  2.230477539062500000e+03  2.248499023437500000e+03  2.259476806640625000e+03  2.260556884765625000e+03  2.257183837890625000e+03  2.252732177734375000e+03  2.253255126953125000e+03  2.257274902343750000e+03  2.258323242187500000e+03  2.252935791015625000e+03  2.246835693359375000e+03  2.239712158203125000e+03  2.233277099609375000e+03  2.225342773437500000e+03  2.218670166015625000e+03  2.211124267578125000e+03  2.202173828125000000e+03  2.193075927734375000e+03  2.184369384765625000e+03  2.177612548828125000e+03  2.170296386718750000e+03  2.161834716796875000e+03  2.154425781250000000e+03  2.148789306640625000e+03  2.144104980468750000e+03  2.139956787109375000e+03  2.135126464843750000e+03  2.129541748046875000e+03  2.124180419921875000e+03  2.119580810546875000e+03  2.116090820312500000e+03  2.112347656250000000e+03  2.107409667968750000e+03  2.101916015625000000e+03  2.096464843750000000e+03  2.087635253906250000e+03  2.075211181640625000e+03  2.067077880859375000e+03  2.059628417968750000e+03  2.050516357421875000e+03  2.047303955078125000e+03  2.043190307617187500e+03  2.042439453125000000e+03  2.048898193359375000e+03  2.052433593750000000e+03  2.054222900390625000e+03  2.054714111328125000e+03  2.055329833984375000e+03  2.057414794921875000e+03  2.061186767578125000e+03  2.068981445312500000e+03  2.074883789062500000e+03  2.077054199218750000e+03  2.079198486328125000e+03  2.081364501953125000e+03  2.083616699218750000e+03  2.086056884765625000e+03  2.087046875000000000e+03  2.086728271484375000e+03  2.082187744140625000e+03  2.074994873046875000e+03  2.071784423828125000e+03  2.069125976562500000e+03  2.067240234375000000e+03  2.066230468750000000e+03  2.065282714843750000e+03  2.064020263671875000e+03  2.061236083984375000e+03  2.053641357421875000e+03  2.046256835937500000e+03  2.045729614257812500e+03  2.045660766601562500e+03  2.045421875000000000e+03  2.045086791992187500e+03  2.047491333007812500e+03  2.052257324218750000e+03  2.057916992187500000e+03  2.064132324218750000e+03  2.071462646484375000e+03  2.075997802734375000e+03  2.082593994140625000e+03  2.087493408203125000e+03  2.087587402343750000e+03  2.079532226562500000e+03  2.070698730468750000e+03  2.065536132812500000e+03  2.067376953125000000e+03  2.071833251953125000e+03  2.077585693359375000e+03  2.086237548828125000e+03
2.117803955078125000e+03  2.117803955078125000e+03  2.117803955078125000e+03  2.117803955078125000e+03  2.117803955078125000e+03  2.117803955078125000e+03  2.117803955078125000e+03  2.117803955078125000e+03  2.117803955078125000e+03  2.117803955078125000e+03  2.117803955078125000e+03  2.117803955078125000e+03  2.117803955078125000e+03  2.119463623046875000e+03  2.126863037109375000e+03  2.138314941406250000e+03  2.150211181640625000e+03  2.164207519531250000e+03  2.173843017578125000e+03  2.183988769531250000e+03  2.194462158203125000e+03  2.204902343750000000e+03  2.216397705078125000e+03  2.231330566406250000e+03  2.245804687500000000e+03  2.265325439453125000e+03  2.269609863281250000e+03  2.267768554687500000e+03  2.267128173828125000e+03  2.256157958984375000e+03  2.250338623046875000e+03  2.245475341796875000e+03  2.243334716796875000e+03  2.239687744140625000e+03  2.234371582031250000e+03  2.229726318359375000e+03  2.222939208984375000e+03  2.214612060546875000e+03  2.207433349609375000e+03  2.199514404296875000e+03  2.191883056640625000e+03  2.185163085937500000e+03  2.177418701171875000e+03  2.169054199218750000e+03  2.160431396484375000e+03  2.152528808593750000e+03  2.146643798828125000e+03  2.141189941406250000e+03  2.135437011718750000e+03  2.129836425781250000e+03  2.124614746093750000e+03  2.119814941406250000e+03  2.117242675781250000e+03  2.113139648437500000e+03  2.108488769531250000e+03  2.103814453125000000e+03  2.099416748046875000e+03  2.096350830078125000e+03  2.092784667968750000e+03  2.088144042968750000e+03  2.078968994140625000e+03  2.068263916015625000e+03  2.058532226562500000e+03  2.049839843750000000e+03  2.045298828125000000e+03  2.040549072265625000e+03  2.037263916015625000e+03  2.041426025390625000e+03  2.046363403320312500e+03  2.048864257812500000e+03  2.048954833984375000e+03  2.049025878906250000e+03  2.050166259765625000e+03  2.057053710937500000e+03  2.064922119140625000e+03  2.071753417968750000e+03  2.074566650390625000e+03  2.076115234375000000e+03  2.077649414062500000e+03  2.079558349609375000e+03  2.082459472656250000e+03  2.084402832031250000e+03  2.084048339843750000e+03  2.079795898437500000e+03  2.074233886718750000e+03  2.070742919921875000e+03  2.066617187500000000e+03  2.065253906250000000e+03  2.064573730468750000e+03  2.064151611328125000e+03  2.063916992187500000e+03  2.062624267578125000e+03  2.056824951171875000e+03  2.050447021484375000e+03  2.046070922851562500e+03  2.046063598632812500e+03  2.045968872070312500e+03  2.045031738281250000e+03  2.044736816406250000e+03  2.048225097656250000e+03  2.053817138671875000e+03  2.060148193359375000e+03  2.067037109375000000e+03  2.072242187500000000e+03  2.079286621093750000e+03  2.086930664062500000e+03  2.086932373046875000e+03  2.078568115234375000e+03  2.066772705078125000e+03  2.060130126953125000e+03  2.059559814453125000e+03  2.061552246093750000e+03  2.065705566406250000e+03  2.071907958984375000e+03
2.117803955078125000e+03  2.117803955078125000e+03  2.117803955078125000e+03  2.117803955078125000e+03  2.117803955078125000e+03  2.117803955078125000e+03  2.117803955078125000e+03  2.119637695312500000e+03  2.119362548828125000e+03  2.118587402343750000e+03  2.118168457031250000e+03  2.120560302734375000e+03  2.126951904296875000e+03  2.133949707031250000e+03  2.142759521484375000e+03  2.155024414062500000e+03  2.167504394531250000e+03  2.181409667968750000e+03  2.192390136718750000e+03  2.203249511718750000e+03  2.213304931640625000e+03  2.222199462890625000e+03  2.234075927734375000e+03  2.248381103515625000e+03  2.261887451171875000e+03  2.273042236328125000e+03  2.273965576171875000e+03  2.270797119140625000e+03  2.258986572265625000e+03  2.245330810546875000e+03  2.234709960937500000e+03  2.227105468750000000e+03  2.230093261718750000e+03  2.228042968750000000e+03  2.222489501953125000e+03  2.216500244140625000e+03  2.209917968750000000e+03  2.203042480468750000e+03  2.197376953125000000e+03  2.190238769531250000e+03  2.183144287109375000e+03  2.175164794921875000e+03  2.167683349609375000e+03  2.159765625000000000e+03  2.152390380859375000e+03  2.145166503906250000e+03  2.137187255859375000e+03  2.129396240234375000e+03  2.122411376953125000e+03  2.119602294921875000e+03  2.116398925781250000e+03  2.113062988281250000e+03  2.109749267578125000e+03  2.104646484375000000e+03  2.099051513671875000e+03  2.096144531250000000e+03  2.092732910156250000e+03  2.090178222656250000e+03  2.087442871093750000e+03  2.083795410156250000e+03  2.077720214843750000e+03  2.068382568359375000e+03  2.057939208984375000e+03  2.049156494140625000e+03  2.043311523437500000e+03  2.037967407226562500e+03  2.034194458007812500e+03  2.035334960937500000e+03  2.039461547851562500e+03  2.040873291015625000e+03  2.041301269531250000e+03  2.042334472656250000e+03  2.045168945312500000e+03  2.050623779296875000e+03  2.060045898437500000e+03  2.065670898437500000e+03  2.069665283203125000e+03  2.072301513671875000e+03  2.074061523437500000e+03  2.075616455078125000e+03  2.077901123046875000e+03  2.079536865234375000e+03  2.079535888671875000e+03  2.076998535156250000e+03  2.072603271484375000e+03  2.067302246093750000e+03  2.062884765625000000e+03  2.062463867187500000e+03  2.062525146484375000e+03  2.062632568359375000e+03  2.062869628906250000e+03  2.062123046875000000e+03  2.059275634765625000e+03  2.055722167968750000e+03  2.051223632812500000e+03  2.049168945312500000e+03  2.049097656250000000e+03  2.048563232421875000e+03  2.045078979492187500e+03  2.044067871093750000e+03  2.049388183593750000e+03  2.055494384765625000e+03  2.062061279296875000e+03  2.066974609375000000e+03  2.071445068359375000e+03  2.077105224609375000e+03  2.080170654296875000e+03  2.074855468750000000e+03  2.062882812500000000e+03  2.054348388671875000e+03  2.052397705078125000e+03  2.052415283203125000e+03  2.055160644531250000e+03  2.058416748046875000e+03
2.117803955078125000e+03  2.117803955078125000e+03  2.117803955078125000e+03  2.117803955078125000e+03  2.117803955078125000e+03  2.117803955078125000e+03  2.121873779296875000e+03  2.124983398437500000e+03  2.123294433593750000e+03  2.124934326171875000e+03  2.127117431640625000e+03  2.133545410156250000e+03  2.143214599609375000e+03  2.149249267578125000e+03  2.158197998046875000e+03  2.172366699218750000e+03  2.187245605468750000e+03  2.200374755859375000e+03  2.211427490234375000e+03  2.218632324218750000e+03  2.232393554687500000e+03  2.247583251953125000e+03  2.259460205078125000e+03  2.267918212890625000e+03  2.272396972656250000e+03  2.274810058593750000e+03  2.269064941406250000e+03  2.255110839843750000e+03  2.242400878906250000e+03  2.231426025390625000e+03  2.219887939453125000e+03  2.212894775390625000e+03  2.214516357421875000e+03  2.212642578125000000e+03  2.207826660156250000e+03  2.203635253906250000e+03  2.199600830078125000e+03  2.193756835937500000e+03  2.187161376953125000e+03  2.180181640625000000e+03  2.172161865234375000e+03  2.165922851562500000e+03  2.158453125000000000e+03  2.150635986328125000e+03  2.142375488281250000e+03  2.133210937500000000e+03  2.124518798828125000e+03  2.118909912109375000e+03  2.113846191406250000e+03  2.109709716796875000e+03  2.106912841796875000e+03  2.104186523437500000e+03  2.101289794921875000e+03  2.097557128906250000e+03  2.091807128906250000e+03  2.087625244140625000e+03  2.084487792968750000e+03  2.082915039062500000e+03  2.082461181640625000e+03  2.079569580078125000e+03  2.075053222656250000e+03  2.068342529296875000e+03  2.059020996093750000e+03  2.048838867187500000e+03  2.040874877929687500e+03  2.035648803710937500e+03  2.031645751953125000e+03  2.029371948242187500e+03  2.031441284179687500e+03  2.032834472656250000e+03  2.034797851562500000e+03  2.036100708007812500e+03  2.039229370117187500e+03  2.044901977539062500e+03  2.052489746093750000e+03  2.061192382812500000e+03  2.065253662109375000e+03  2.068479248046875000e+03  2.070194824218750000e+03  2.071628417968750000e+03  2.073982910156250000e+03  2.076192382812500000e+03  2.076400390625000000e+03  2.074360839843750000e+03  2.069373046875000000e+03  2.064004394531250000e+03  2.060125000000000000e+03  2.060031738281250000e+03  2.060568115234375000e+03  2.060676513671875000e+03  2.060663330078125000e+03  2.059557617187500000e+03  2.058297607421875000e+03  2.057890625000000000e+03  2.056505371093750000e+03  2.050637207031250000e+03  2.049933837890625000e+03  2.049559814453125000e+03  2.047708374023437500e+03  2.043646850585937500e+03  2.046423950195312500e+03  2.050061767578125000e+03  2.056210937500000000e+03  2.061494140625000000e+03  2.065793945312500000e+03  2.070816406250000000e+03  2.074048095703125000e+03  2.067639892578125000e+03  2.056470458984375000e+03  2.047825195312500000e+03  2.045368164062500000e+03  2.043364746093750000e+03  2.042387451171875000e+03  2.042431762695312500e+03
2.117803955078125000e+03  2.117803955078125000e+03  2.117803955078125000e+03  2.117803955078125000e+03  2.118095703125000000e+03  2.121146728515625000e+03  2.127670654296875000e+03  2.132191894531250000e+03  2.133615966796875000e+03  2.138610107421875000e+03  2.142381591796875000e+03  2.148947021484375000e+03  2.160343750000000000e+03  2.170902587890625000e+03  2.183011718750000000e+03  2.196351074218750000e+03  2.205026611328125000e+03  2.217498535156250000e+03  2.230279541015625000e+03  2.244356933593750000e+03  2.260631347656250000e+03  2.271196289062500000e+03  2.275889160156250000e+03  2.280327880859375000e+03  2.274086669921875000e+03  2.263913574218750000e+03  2.251139404296875000e+03  2.241451904296875000e+03  2.232395751953125000e+03  2.217477783203125000e+03  2.202689941406250000e+03  2.195267089843750000e+03  2.197968994140625000e+03  2.198928955078125000e+03  2.196953857421875000e+03  2.192809814453125000e+03  2.188174804687500000e+03  2.182822021484375000e+03  2.177168701171875000e+03  2.171552246093750000e+03  2.164223388671875000e+03  2.157039306640625000e+03  2.149043457031250000e+03  2.139168945312500000e+03  2.130092041015625000e+03  2.121132080078125000e+03  2.114195556640625000e+03  2.108971923828125000e+03  2.104783691406250000e+03  2.101626708984375000e+03  2.100049316406250000e+03  2.096673828125000000e+03  2.091573486328125000e+03  2.086634277343750000e+03  2.082229980468750000e+03  2.078978515625000000e+03  2.077816406250000000e+03  2.077680664062500000e+03  2.076971435546875000e+03  2.074657226562500000e+03  2.071354003906250000e+03  2.066586669921875000e+03  2.059141845703125000e+03  2.048797851562500000e+03  2.040543823242187500e+03  2.035741333007812500e+03  2.031510864257812500e+03  2.026329223632812500e+03  2.025102050781250000e+03  2.025067749023437500e+03  2.026820556640625000e+03  2.029455322265625000e+03  2.034521484375000000e+03  2.039981811523437500e+03  2.047146484375000000e+03  2.054852294921875000e+03  2.061692138671875000e+03  2.065057373046875000e+03  2.067281982421875000e+03  2.069167236328125000e+03  2.070735595703125000e+03  2.072566162109375000e+03  2.073347412109375000e+03  2.070767578125000000e+03  2.066454101562500000e+03  2.061991455078125000e+03  2.058104003906250000e+03  2.057074951171875000e+03  2.057276855468750000e+03  2.057967285156250000e+03  2.058203369140625000e+03  2.058128906250000000e+03  2.058109619140625000e+03  2.058042236328125000e+03  2.057901611328125000e+03  2.056489257812500000e+03  2.051388916015625000e+03  2.050487060546875000e+03  2.049344970703125000e+03  2.045061767578125000e+03  2.042595581054687500e+03  2.046894165039062500e+03  2.050840576171875000e+03  2.055756347656250000e+03  2.059052001953125000e+03  2.061236572265625000e+03  2.061771728515625000e+03  2.059720214843750000e+03  2.053383300781250000e+03  2.043778320312500000e+03  2.037162475585937500e+03  2.035584716796875000e+03  2.035703002929687500e+03  2.035895996093750000e+03
2.117803955078125000e+03  2.117803955078125000e+03  2.117811767578125000e+03  2.121435791015625000e+03  2.125123535156250000e+03  2.132606689453125000e+03  2.139715332031250000e+03  2.145016113281250000e+03  2.146701904296875000e+03  2.154756347656250000e+03  2.162960693359375000e+03  2.170671875000000000e+03  2.182173828125000000e+03  2.192479736328125000e+03  2.204056884765625000e+03  2.216025146484375000e+03  2.225050048828125000e+03  2.237929687500000000e+03  2.253450195312500000e+03  2.268113281250000000e+03  2.278017089843750000e+03  2.284020019531250000e+03  2.283092285156250000e+03  2.272620117187500000e+03  2.260578857421875000e+03  2.251130126953125000e+03  2.240743164062500000e+03  2.231299560546875000e+03  2.219305419921875000e+03  2.205155029296875000e+03  2.189566406250000000e+03  2.181371582031250000e+03  2.184591552734375000e+03  2.185060546875000000e+03  2.183507324218750000e+03  2.181117187500000000e+03  2.178739990234375000e+03  2.173699707031250000e+03  2.167503662109375000e+03  2.161243408203125000e+03  2.154388427734375000e+03  2.147537353515625000e+03  2.138424316406250000e+03  2.126900146484375000e+03  2.117124511718750000e+03  2.109623535156250000e+03  2.104220214843750000e+03  2.100592041015625000e+03  2.097743652343750000e+03  2.094302978515625000e+03  2.090387939453125000e+03  2.085848632812500000e+03  2.080948486328125000e+03  2.078324707031250000e+03  2.074234130859375000e+03  2.071317382812500000e+03  2.070758544921875000e+03  2.071069824218750000e+03  2.070985351562500000e+03  2.070627197265625000e+03  2.067841064453125000e+03  2.064421875000000000e+03  2.059062988281250000e+03  2.050104248046875000e+03  2.043553588867187500e+03  2.038302246093750000e+03  2.033680175781250000e+03  2.027457763671875000e+03  2.022478271484375000e+03  2.021182373046875000e+03  2.022449707031250000e+03  2.024898193359375000e+03  2.029903442382812500e+03  2.035497802734375000e+03  2.042270751953125000e+03  2.049458740234375000e+03  2.057558105468750000e+03  2.062712646484375000e+03  2.064289306640625000e+03  2.065296875000000000e+03  2.066907470703125000e+03  2.067909912109375000e+03  2.067990722656250000e+03  2.065300537109375000e+03  2.062192871093750000e+03  2.059088378906250000e+03  2.055792724609375000e+03  2.054331054687500000e+03  2.053927246093750000e+03  2.054340087890625000e+03  2.054679931640625000e+03  2.056453125000000000e+03  2.057972412109375000e+03  2.058001708984375000e+03  2.057954589843750000e+03  2.057360107421875000e+03  2.054107177734375000e+03  2.052178222656250000e+03  2.050942382812500000e+03  2.046533691406250000e+03  2.042168212890625000e+03  2.043360839843750000e+03  2.046723144531250000e+03  2.050382080078125000e+03  2.053528808593750000e+03  2.055994873046875000e+03  2.056003173828125000e+03  2.054133300781250000e+03  2.050302490234375000e+03  2.041733764648437500e+03  2.035416137695312500e+03  2.033915649414062500e+03  2.033091674804687500e+03  2.034074462890625000e+03
2.120529541015625000e+03  2.124051757812500000e+03  2.131853271484375000e+03  2.138010986328125000e+03  2.141116210937500000e+03  2.147154541015625000e+03  2.153143066406250000e+03  2.159586669921875000e+03  2.166703125000000000e+03  2.178077392578125000e+03  2.188309814453125000e+03  2.191245361328125000e+03  2.202386474609375000e+03  2.214613281250000000e+03  2.228598144531250000e+03  2.238720458984375000e+03  2.244876708984375000e+03  2.258770507812500000e+03  2.273564941406250000e+03  2.283932617187500000e+03  2.286673583984375000e+03  2.282527099609375000e+03  2.272076660156250000e+03  2.260186035156250000e+03  2.248703857421875000e+03  2.237858642578125000e+03  2.228683837890625000e+03  2.219874511718750000e+03  2.210208984375000000e+03  2.197962890625000000e+03  2.182910400390625000e+03  2.170485839843750000e+03  2.172038574218750000e+03  2.175393798828125000e+03  2.175203613281250000e+03  2.172600830078125000e+03  2.168281738281250000e+03  2.162578857421875000e+03  2.156605712890625000e+03  2.151747802734375000e+03  2.144935302734375000e+03  2.135705810546875000e+03  2.124572753906250000e+03  2.114968505859375000e+03  2.107443847656250000e+03  2.102600830078125000e+03  2.097157958984375000e+03  2.092482910156250000e+03  2.088361328125000000e+03  2.084644042968750000e+03  2.081577636718750000e+03  2.077755126953125000e+03  2.073323486328125000e+03  2.069568847656250000e+03  2.066433349609375000e+03  2.064212402343750000e+03  2.065633544921875000e+03  2.065824218750000000e+03  2.065637451171875000e+03  2.065065673828125000e+03  2.063721923828125000e+03  2.061999023437500000e+03  2.057723876953125000e+03  2.051775146484375000e+03  2.046060546875000000e+03  2.041227905273437500e+03  2.036516235351562500e+03  2.029501098632812500e+03  2.022592407226562500e+03  2.018572509765625000e+03  2.019615600585937500e+03  2.021728637695312500e+03  2.025190185546875000e+03  2.031419067382812500e+03  2.037746215820312500e+03  2.045140380859375000e+03  2.051903808593750000e+03  2.057325439453125000e+03  2.059911865234375000e+03  2.061937011718750000e+03  2.063650146484375000e+03  2.063782226562500000e+03  2.062226806640625000e+03  2.059793457031250000e+03  2.058351562500000000e+03  2.056078369140625000e+03  2.053236816406250000e+03  2.050494140625000000e+03  2.049570312500000000e+03  2.050708007812500000e+03  2.051255126953125000e+03  2.051379638671875000e+03  2.054584472656250000e+03  2.057638671875000000e+03  2.058014648437500000e+03  2.057916015625000000e+03  2.056400878906250000e+03  2.053319824218750000e+03  2.053129638671875000e+03  2.046936767578125000e+03  2.040153808593750000e+03  2.040371337890625000e+03  2.043519897460937500e+03  2.046506713867187500e+03  2.048769042968750000e+03  2.050295654296875000e+03  2.050091308593750000e+03  2.049596435546875000e+03  2.047556762695312500e+03  2.041939086914062500e+03  2.036183349609375000e+03  2.032169921875000000e+03  2.030946044921875000e+03  2.031929199218750000e+03
2.134228271484375000e+03  2.142437744140625000e+03  2.149506835937500000e+03  2.152529052734375000e+03  2.156173095703125000e+03  2.163069335937500000e+03  2.172163818359375000e+03  2.181998535156250000e+03  2.190242919921875000e+03  2.199254150390625000e+03  2.210541259765625000e+03  2.217602783203125000e+03  2.224992675781250000e+03  2.239507568359375000e+03  2.248985839843750000e+03  2.257345214843750000e+03  2.263813964843750000e+03  2.274108154296875000e+03  2.283094726562500000e+03  2.285012939453125000e+03  2.281822509765625000e+03  2.270826660156250000e+03  2.258533935546875000e+03  2.245291503906250000e+03  2.233532958984375000e+03  2.225112304687500000e+03  2.217177246093750000e+03  2.208538330078125000e+03  2.199739501953125000e+03  2.189178955078125000e+03  2.175760498046875000e+03  2.168415527343750000e+03  2.166445068359375000e+03  2.166846435546875000e+03  2.165935302734375000e+03  2.163041259765625000e+03  2.159385009765625000e+03  2.155036865234375000e+03  2.148959716796875000e+03  2.142083496093750000e+03  2.133974853515625000e+03  2.124185791015625000e+03  2.116015869140625000e+03  2.107874755859375000e+03  2.100404052734375000e+03  2.094574218750000000e+03  2.089475097656250000e+03  2.084678710937500000e+03  2.081329345703125000e+03  2.077072265625000000e+03  2.072658935546875000e+03  2.068639892578125000e+03  2.064571044921875000e+03  2.061973632812500000e+03  2.060412841796875000e+03  2.058788818359375000e+03  2.059501953125000000e+03  2.059740234375000000e+03  2.059684814453125000e+03  2.060274902343750000e+03  2.059936767578125000e+03  2.058745361328125000e+03  2.054933349609375000e+03  2.051532958984375000e+03  2.047163818359375000e+03  2.041979736328125000e+03  2.037154907226562500e+03  2.030562377929687500e+03  2.023901123046875000e+03  2.016237548828125000e+03  2.016394409179687500e+03  2.018628295898437500e+03  2.022072143554687500e+03  2.026607055664062500e+03  2.032717163085937500e+03  2.039204223632812500e+03  2.047206176757812500e+03  2.051864990234375000e+03  2.054488769531250000e+03  2.057153320312500000e+03  2.058770019531250000e+03  2.058539794921875000e+03  2.057987060546875000e+03  2.055817382812500000e+03  2.054469726562500000e+03  2.052986572265625000e+03  2.050740234375000000e+03  2.047798706054687500e+03  2.047056030273437500e+03  2.047941650390625000e+03  2.047760864257812500e+03  2.048604248046875000e+03  2.050790283203125000e+03  2.055860839843750000e+03  2.057954101562500000e+03  2.058108154296875000e+03  2.057660644531250000e+03  2.055718750000000000e+03  2.055447265625000000e+03  2.048255371093750000e+03  2.037843505859375000e+03  2.037157226562500000e+03  2.039606445312500000e+03  2.042468017578125000e+03  2.045196289062500000e+03  2.046712036132812500e+03  2.047048706054687500e+03  2.046247924804687500e+03  2.044597167968750000e+03  2.041756713867187500e+03  2.037542968750000000e+03  2.031983398437500000e+03  2.029011230468750000e+03  2.028248413085937500e+03
2.149673828125000000e+03  2.157403076171875000e+03  2.163922363281250000e+03  2.170428955078125000e+03  2.175755615234375000e+03  2.184411376953125000e+03  2.191861572265625000e+03  2.204578125000000000e+03  2.215698730468750000e+03  2.224477783203125000e+03  2.236967773437500000e+03  2.244038085937500000e+03  2.249898437500000000e+03  2.263331542968750000e+03  2.276203613281250000e+03  2.280941894531250000e+03  2.279196777343750000e+03  2.277945068359375000e+03  2.278625732421875000e+03  2.277990722656250000e+03  2.271135009765625000e+03  2.258343505859375000e+03  2.245134277343750000e+03  2.232698242187500000e+03  2.221411376953125000e+03  2.212142578125000000e+03  2.204469726562500000e+03  2.197437744140625000e+03  2.189877197265625000e+03  2.181705566406250000e+03  2.173130859375000000e+03  2.165907226562500000e+03  2.161053222656250000e+03  2.158188476562500000e+03  2.158794433593750000e+03  2.155994384765625000e+03  2.151429443359375000e+03  2.146496093750000000e+03  2.140250732421875000e+03  2.133864013671875000e+03  2.125652099609375000e+03  2.116737548828125000e+03  2.107954589843750000e+03  2.099810058593750000e+03  2.092852783203125000e+03  2.087723388671875000e+03  2.082705566406250000e+03  2.077570800781250000e+03  2.072589355468750000e+03  2.068694091796875000e+03  2.064847900390625000e+03  2.061521728515625000e+03  2.058223144531250000e+03  2.055311523437500000e+03  2.052482666015625000e+03  2.051481933593750000e+03  2.053683349609375000e+03  2.054780517578125000e+03  2.054771240234375000e+03  2.054641845703125000e+03  2.054992187500000000e+03  2.054752197265625000e+03  2.052702148437500000e+03  2.051010498046875000e+03  2.047291137695312500e+03  2.042051757812500000e+03  2.037093872070312500e+03  2.030864624023437500e+03  2.024193237304687500e+03  2.015737915039062500e+03  2.012657836914062500e+03  2.014730102539062500e+03  2.018401611328125000e+03  2.023387695312500000e+03  2.029064453125000000e+03  2.035417358398437500e+03  2.041207519531250000e+03  2.045754272460937500e+03  2.048162597656250000e+03  2.051093261718750000e+03  2.052923583984375000e+03  2.052141113281250000e+03  2.050337402343750000e+03  2.050397949218750000e+03  2.050764160156250000e+03  2.050599853515625000e+03  2.048199951171875000e+03  2.045150512695312500e+03  2.043790527343750000e+03  2.043638061523437500e+03  2.044012451171875000e+03  2.045916503906250000e+03  2.049206054687500000e+03  2.054680419921875000e+03  2.057480224609375000e+03  2.058081787109375000e+03  2.057697265625000000e+03  2.056739501953125000e+03  2.056664306640625000e+03  2.053018066406250000e+03  2.039215576171875000e+03  2.033743530273437500e+03  2.036369140625000000e+03  2.039380371093750000e+03  2.041900878906250000e+03  2.043212402343750000e+03  2.043846313476562500e+03  2.043400878906250000e+03  2.042773681640625000e+03  2.040739624023437500e+03  2.037718139648437500e+03  2.031994506835937500e+03  2.027609375000000000e+03  2.025715454101562500e+03
2.168088867187500000e+03  2.174472900390625000e+03  2.183755615234375000e+03  2.189449218750000000e+03  2.195285888671875000e+03  2.205352050781250000e+03  2.217751220703125000e+03  2.229820068359375000e+03  2.241477783203125000e+03  2.248250488281250000e+03  2.266748779296875000e+03  2.276135253906250000e+03  2.276924560546875000e+03  2.289618896484375000e+03  2.297316650390625000e+03  2.295087890625000000e+03  2.285205566406250000e+03  2.277596923828125000e+03  2.271868164062500000e+03  2.267835693359375000e+03  2.259298095703125000e+03  2.246844482421875000e+03  2.231058593750000000e+03  2.218703369140625000e+03  2.208723632812500000e+03  2.200368896484375000e+03  2.195381103515625000e+03  2.188797119140625000e+03  2.181533691406250000e+03  2.174327636718750000e+03  2.167651367187500000e+03  2.162036865234375000e+03  2.157818603515625000e+03  2.153931152343750000e+03  2.149621826171875000e+03  2.147214843750000000e+03  2.142774414062500000e+03  2.138713867187500000e+03  2.133343994140625000e+03  2.125459228515625000e+03  2.117620117187500000e+03  2.109287597656250000e+03  2.101234863281250000e+03  2.094540527343750000e+03  2.087712646484375000e+03  2.080835693359375000e+03  2.075078369140625000e+03  2.070338867187500000e+03  2.066630371093750000e+03  2.063016601562500000e+03  2.058277832031250000e+03  2.054154052734375000e+03  2.050761718750000000e+03  2.047856811523437500e+03  2.047101074218750000e+03  2.046787963867187500e+03  2.048112060546875000e+03  2.048949218750000000e+03  2.048862304687500000e+03  2.049082519531250000e+03  2.050636474609375000e+03  2.051593261718750000e+03  2.050278320312500000e+03  2.048397216796875000e+03  2.044850830078125000e+03  2.041468139648437500e+03  2.037108154296875000e+03  2.030898071289062500e+03  2.024628662109375000e+03  2.017249755859375000e+03  2.010848388671875000e+03  2.010748779296875000e+03  2.014708251953125000e+03  2.020034179687500000e+03  2.025622680664062500e+03  2.032116699218750000e+03  2.036846679687500000e+03  2.040532836914062500e+03  2.042338989257812500e+03  2.044935546875000000e+03  2.046354614257812500e+03  2.045986450195312500e+03  2.045958374023437500e+03  2.046688964843750000e+03  2.047301513671875000e+03  2.047003173828125000e+03  2.044358764648437500e+03  2.040510131835937500e+03  2.040297363281250000e+03  2.040125610351562500e+03  2.039896362304687500e+03  2.042332153320312500e+03  2.046719970703125000e+03  2.052306396484375000e+03  2.056823974609375000e+03  2.057881591796875000e+03  2.057270263671875000e+03  2.053837158203125000e+03  2.052925292968750000e+03  2.053335449218750000e+03  2.040546630859375000e+03  2.031776733398437500e+03  2.032641845703125000e+03  2.036357299804687500e+03  2.039015747070312500e+03  2.041130615234375000e+03  2.041177856445312500e+03  2.041026611328125000e+03  2.040843261718750000e+03  2.039133178710937500e+03  2.036441894531250000e+03  2.030997070312500000e+03  2.025854858398437500e+03  2.024010131835937500e+03
2.188390136718750000e+03  2.192218994140625000e+03  2.202335449218750000e+03  2.212529541015625000e+03  2.222426513671875000e+03  2.229459960937500000e+03  2.239714111328125000e+03  2.249624511718750000e+03  2.261649169921875000e+03  2.275853271484375000e+03  2.291875000000000000e+03  2.299031005859375000e+03  2.300869140625000000e+03  2.305940673828125000e+03  2.304935058593750000e+03  2.293546142578125000e+03  2.279419921875000000e+03  2.269469970703125000e+03  2.261551269531250000e+03  2.253893554687500000e+03  2.244785644531250000e+03  2.230023437500000000e+03  2.217559326171875000e+03  2.206813232421875000e+03  2.198726806640625000e+03  2.191645019531250000e+03  2.185984130859375000e+03  2.179745849609375000e+03  2.173444580078125000e+03  2.168425292968750000e+03  2.162543212890625000e+03  2.157380126953125000e+03  2.153353515625000000e+03  2.150018310546875000e+03  2.144808837890625000e+03  2.139806396484375000e+03  2.135138183593750000e+03  2.130498535156250000e+03  2.124941650390625000e+03  2.118350585937500000e+03  2.111601562500000000e+03  2.104708496093750000e+03  2.096613769531250000e+03  2.088948242187500000e+03  2.080811767578125000e+03  2.073514404296875000e+03  2.069455810546875000e+03  2.064898925781250000e+03  2.060698242187500000e+03  2.056284179687500000e+03  2.051344482421875000e+03  2.048137207031250000e+03  2.045722900390625000e+03  2.042829589843750000e+03  2.040288330078125000e+03  2.040772338867187500e+03  2.042130249023437500e+03  2.043846801757812500e+03  2.044462890625000000e+03  2.044871459960937500e+03  2.045845581054687500e+03  2.046831542968750000e+03  2.046590576171875000e+03  2.044890625000000000e+03  2.041583251953125000e+03  2.039037597656250000e+03  2.035405883789062500e+03  2.030082885742187500e+03  2.024027587890625000e+03  2.017134521484375000e+03  2.009807128906250000e+03  2.007529907226562500e+03  2.010687255859375000e+03  2.016913696289062500e+03  2.025183471679687500e+03  2.029460205078125000e+03  2.033074951171875000e+03  2.035239746093750000e+03  2.035660644531250000e+03  2.038213012695312500e+03  2.040248168945312500e+03  2.040341308593750000e+03  2.040091430664062500e+03  2.041563598632812500e+03  2.042475830078125000e+03  2.043218017578125000e+03  2.041582031250000000e+03  2.037293457031250000e+03  2.036162719726562500e+03  2.035846069335937500e+03  2.035948242187500000e+03  2.038990722656250000e+03  2.044504394531250000e+03  2.049945556640625000e+03  2.055198242187500000e+03  2.056907470703125000e+03  2.053916992187500000e+03  2.050030029296875000e+03  2.048321044921875000e+03  2.048254150390625000e+03  2.040448364257812500e+03  2.028660522460937500e+03  2.028536987304687500e+03  2.032413452148437500e+03  2.036671020507812500e+03  2.038781250000000000e+03  2.038588378906250000e+03  2.038539672851562500e+03  2.038652832031250000e+03  2.037255737304687500e+03  2.033908935546875000e+03  2.028810546875000000e+03  2.024500244140625000e+03  2.023108154296875000e+03
2.210174804687500000e+03  2.218852783203125000e+03  2.227491210937500000e+03  2.240310302734375000e+03  2.247486816406250000e+03  2.253586425781250000e+03  2.263742675781250000e+03  2.274291992187500000e+03  2.288467285156250000e+03  2.297266357421875000e+03  2.302056640625000000e+03  2.308181396484375000e+03  2.320006347656250000e+03  2.314554687500000000e+03  2.300818115234375000e+03  2.286085449218750000e+03  2.271619628906250000e+03  2.260599365234375000e+03  2.250547119140625000e+03  2.240082031250000000e+03  2.229189941406250000e+03  2.218123291015625000e+03  2.205220947265625000e+03  2.195181152343750000e+03  2.189108398437500000e+03  2.183004882812500000e+03  2.177703857421875000e+03  2.172393798828125000e+03  2.166849365234375000e+03  2.161619140625000000e+03  2.156493896484375000e+03  2.151931640625000000e+03  2.149636962890625000e+03  2.146898193359375000e+03  2.141734863281250000e+03  2.135131347656250000e+03  2.128113769531250000e+03  2.123595703125000000e+03  2.119194091796875000e+03  2.113449707031250000e+03  2.106985351562500000e+03  2.099467773437500000e+03  2.091741699218750000e+03  2.083525634765625000e+03  2.075148437500000000e+03  2.068148193359375000e+03  2.062929443359375000e+03  2.058880126953125000e+03  2.054945800781250000e+03  2.051062011718750000e+03  2.047136230468750000e+03  2.043296264648437500e+03  2.039673583984375000e+03  2.036911987304687500e+03  2.035785400390625000e+03  2.036354858398437500e+03  2.037102905273437500e+03  2.038197265625000000e+03  2.039093017578125000e+03  2.039461425781250000e+03  2.040905639648437500e+03  2.042498657226562500e+03  2.042746093750000000e+03  2.041081787109375000e+03  2.038636230468750000e+03  2.036117675781250000e+03  2.033048950195312500e+03  2.028747436523437500e+03  2.023160766601562500e+03  2.016190917968750000e+03  2.008214355468750000e+03  2.004724731445312500e+03  2.008503295898437500e+03  2.014610229492187500e+03  2.023581665039062500e+03  2.027391235351562500e+03  2.029220947265625000e+03  2.029149047851562500e+03  2.030153686523437500e+03  2.032350097656250000e+03  2.033714599609375000e+03  2.034146240234375000e+03  2.035603881835937500e+03  2.038431396484375000e+03  2.040276977539062500e+03  2.040460327148437500e+03  2.038744140625000000e+03  2.034969726562500000e+03  2.032149047851562500e+03  2.032571044921875000e+03  2.033171630859375000e+03  2.036087280273437500e+03  2.041171142578125000e+03  2.046525024414062500e+03  2.051671630859375000e+03  2.054321289062500000e+03  2.051010742187500000e+03  2.047487915039062500e+03  2.045428833007812500e+03  2.043834228515625000e+03  2.040375488281250000e+03  2.029213256835937500e+03  2.023620483398437500e+03  2.026009887695312500e+03  2.030968383789062500e+03  2.036133789062500000e+03  2.036451049804687500e+03  2.036120361328125000e+03  2.037022338867187500e+03  2.034644165039062500e+03  2.031159667968750000e+03  2.026842285156250000e+03  2.023813354492187500e+03  2.022520996093750000e+03
2.233539062500000000e+03  2.243155029296875000e+03  2.255163085937500000e+03  2.269792968750000000e+03  2.286801269531250000e+03  2.289294677734375000e+03  2.293831787109375000e+03  2.298961669921875000e+03  2.306099853515625000e+03  2.310423095703125000e+03  2.314156738281250000e+03  2.319707519531250000e+03  2.320635986328125000e+03  2.308011230468750000e+03  2.294355468750000000e+03  2.279353271484375000e+03  2.262346435546875000e+03  2.247859863281250000e+03  2.240582763671875000e+03  2.229864746093750000e+03  2.216632080078125000e+03  2.203754150390625000e+03  2.193350830078125000e+03  2.187940185546875000e+03  2.182618164062500000e+03  2.175995117187500000e+03  2.169831054687500000e+03  2.164463867187500000e+03  2.159149414062500000e+03  2.154890625000000000e+03  2.150657714843750000e+03  2.146374267578125000e+03  2.143607421875000000e+03  2.140405761718750000e+03  2.137079833984375000e+03  2.131767333984375000e+03  2.122823974609375000e+03  2.117926269531250000e+03  2.113686523437500000e+03  2.108842773437500000e+03  2.103626953125000000e+03  2.097362548828125000e+03  2.088383300781250000e+03  2.079049560546875000e+03  2.070052978515625000e+03  2.062726806640625000e+03  2.058533935546875000e+03  2.054742919921875000e+03  2.050708007812500000e+03  2.046551879882812500e+03  2.042853881835937500e+03  2.039281616210937500e+03  2.036188842773437500e+03  2.034198486328125000e+03  2.032815429687500000e+03  2.032535888671875000e+03  2.032642578125000000e+03  2.033345581054687500e+03  2.034832153320312500e+03  2.035315551757812500e+03  2.036335205078125000e+03  2.037196289062500000e+03  2.037869995117187500e+03  2.037824096679687500e+03  2.035853271484375000e+03  2.033585205078125000e+03  2.030037353515625000e+03  2.026561035156250000e+03  2.020889160156250000e+03  2.014051391601562500e+03  2.007165649414062500e+03  2.001993896484375000e+03  2.005040649414062500e+03  2.011411499023437500e+03  2.018964477539062500e+03  2.024935913085937500e+03  2.026258911132812500e+03  2.024165527343750000e+03  2.023317626953125000e+03  2.025578735351562500e+03  2.027594360351562500e+03  2.029022460937500000e+03  2.032091552734375000e+03  2.035359985351562500e+03  2.037449707031250000e+03  2.037579223632812500e+03  2.036432373046875000e+03  2.031505615234375000e+03  2.027812011718750000e+03  2.026828369140625000e+03  2.029337890625000000e+03  2.033418823242187500e+03  2.038550048828125000e+03  2.043827758789062500e+03  2.047551757812500000e+03  2.049014892578125000e+03  2.047590698242187500e+03  2.044806640625000000e+03  2.042523071289062500e+03  2.040746582031250000e+03  2.038042724609375000e+03  2.030068359375000000e+03  2.019278442382812500e+03  2.019430297851562500e+03  2.023705688476562500e+03  2.028097900390625000e+03  2.031233886718750000e+03  2.032840087890625000e+03  2.033573974609375000e+03  2.032487304687500000e+03  2.029155761718750000e+03  2.025229370117187500e+03  2.022917114257812500e+03  2.021722900390625000e+03
2.257526123046875000e+03  2.275544677734375000e+03  2.294288085937500000e+03  2.302660888671875000e+03  2.318558593750000000e+03  2.319746582031250000e+03  2.318499511718750000e+03  2.320052246093750000e+03  2.321214111328125000e+03  2.325535156250000000e+03  2.323858398437500000e+03  2.321837646484375000e+03  2.311101806640625000e+03  2.299047119140625000e+03  2.286650146484375000e+03  2.270067138671875000e+03  2.255082763671875000e+03  2.239317382812500000e+03  2.226372802734375000e+03  2.214614746093750000e+03  2.204538085937500000e+03  2.193336914062500000e+03  2.185814208984375000e+03  2.180121337890625000e+03  2.173744384765625000e+03  2.168124755859375000e+03  2.163250976562500000e+03  2.158871337890625000e+03  2.153948242187500000e+03  2.149031494140625000e+03  2.144143066406250000e+03  2.140128662109375000e+03  2.137054687500000000e+03  2.134852294921875000e+03  2.132249755859375000e+03  2.126852050781250000e+03  2.119572998046875000e+03  2.111608642578125000e+03  2.109416992187500000e+03  2.105899902343750000e+03  2.101783447265625000e+03  2.095977294921875000e+03  2.087321044921875000e+03  2.077312744140625000e+03  2.067827636718750000e+03  2.059908691406250000e+03  2.054772705078125000e+03  2.050538574218750000e+03  2.046550781250000000e+03  2.043207763671875000e+03  2.040009155273437500e+03  2.036426391601562500e+03  2.033609252929687500e+03  2.031445190429687500e+03  2.029260253906250000e+03  2.028393432617187500e+03  2.028541015625000000e+03  2.029111206054687500e+03  2.029778808593750000e+03  2.030614013671875000e+03  2.032028320312500000e+03  2.033278686523437500e+03  2.034039428710937500e+03  2.034039184570312500e+03  2.032809082031250000e+03  2.030230224609375000e+03  2.027525512695312500e+03  2.024953002929687500e+03  2.018299682617187500e+03  2.010927246093750000e+03  2.003463500976562500e+03  1.999446777343750000e+03  2.000553955078125000e+03  2.007134887695312500e+03  2.015059448242187500e+03  2.018994873046875000e+03  2.018982788085937500e+03  2.017557739257812500e+03  2.018679077148437500e+03  2.020390502929687500e+03  2.021599487304687500e+03  2.023562377929687500e+03  2.027506713867187500e+03  2.030453247070312500e+03  2.032711425781250000e+03  2.032811401367187500e+03  2.031228759765625000e+03  2.026988403320312500e+03  2.022975463867187500e+03  2.022945922851562500e+03  2.026402709960937500e+03  2.031099731445312500e+03  2.035822143554687500e+03  2.040552734375000000e+03  2.044903442382812500e+03  2.046535522460937500e+03  2.044435668945312500e+03  2.040589721679687500e+03  2.037881958007812500e+03  2.036781860351562500e+03  2.034338134765625000e+03  2.028982299804687500e+03  2.018196411132812500e+03  2.011984130859375000e+03  2.012526123046875000e+03  2.021164062500000000e+03  2.026115722656250000e+03  2.028912231445312500e+03  2.030170654296875000e+03  2.029305419921875000e+03  2.027007080078125000e+03  2.024040527343750000e+03  2.021971435546875000e+03  2.021259277343750000e+03
2.289187988281250000e+03  2.306704101562500000e+03  2.318873779296875000e+03  2.327848388671875000e+03  2.343036376953125000e+03  2.342503173828125000e+03  2.339806396484375000e+03  2.333907958984375000e+03  2.331079345703125000e+03  2.330707031250000000e+03  2.322090820312500000e+03  2.309970703125000000e+03  2.298884765625000000e+03  2.290474121093750000e+03  2.278180664062500000e+03  2.261938232421875000e+03  2.248183349609375000e+03  2.231621337890625000e+03  2.218168212890625000e+03  2.203977783203125000e+03  2.192960693359375000e+03  2.183562255859375000e+03  2.177016845703125000e+03  2.170562255859375000e+03  2.167385498046875000e+03  2.162926025390625000e+03  2.157926513671875000e+03  2.152862060546875000e+03  2.148149169921875000e+03  2.143721435546875000e+03  2.139822998046875000e+03  2.135808349609375000e+03  2.131733642578125000e+03  2.129015869140625000e+03  2.126144531250000000e+03  2.122196289062500000e+03  2.115403808593750000e+03  2.109079345703125000e+03  2.105981689453125000e+03  2.102742919921875000e+03  2.099135986328125000e+03  2.092652832031250000e+03  2.084728759765625000e+03  2.075848632812500000e+03  2.065986328125000000e+03  2.057975585937500000e+03  2.052094970703125000e+03  2.047744995117187500e+03  2.043824829101562500e+03  2.040417358398437500e+03  2.037033203125000000e+03  2.032912597656250000e+03  2.030099731445312500e+03  2.028058959960937500e+03  2.026395019531250000e+03  2.024553466796875000e+03  2.024483764648437500e+03  2.024672241210937500e+03  2.025491699218750000e+03  2.026529785156250000e+03  2.027994384765625000e+03  2.028783203125000000e+03  2.029292724609375000e+03  2.029668090820312500e+03  2.030090820312500000e+03  2.028668334960937500e+03  2.026380371093750000e+03  2.022837036132812500e+03  2.016923461914062500e+03  2.009359375000000000e+03  2.000933837890625000e+03  1.997806274414062500e+03  1.997645263671875000e+03  1.999697265625000000e+03  2.007560302734375000e+03  2.013277343750000000e+03  2.012952148437500000e+03  2.010794067382812500e+03  2.012731689453125000e+03  2.014737426757812500e+03  2.015974975585937500e+03  2.018995239257812500e+03  2.022661743164062500e+03  2.025493652343750000e+03  2.026609130859375000e+03  2.026707275390625000e+03  2.026140014648437500e+03  2.023156982421875000e+03  2.018275512695312500e+03  2.017497436523437500e+03  2.022218750000000000e+03  2.027243164062500000e+03  2.032472778320312500e+03  2.037432617187500000e+03  2.041350830078125000e+03  2.042828979492187500e+03  2.040651855468750000e+03  2.036966186523437500e+03  2.034703979492187500e+03  2.033576293945312500e+03  2.030961181640625000e+03  2.026907470703125000e+03  2.015911621093750000e+03  2.009024902343750000e+03  2.009934082031250000e+03  2.015752563476562500e+03  2.023592407226562500e+03  2.026949462890625000e+03  2.028236206054687500e+03  2.027624877929687500e+03  2.025803588867187500e+03  2.023273193359375000e+03  2.021057006835937500e+03  2.019988281250000000e+03
2.313875488281250000e+03  2.333529296875000000e+03  2.343877197265625000e+03  2.350727050781250000e+03  2.355204345703125000e+03  2.355431884765625000e+03  2.354560302734375000e+03  2.346673828125000000e+03  2.336781494140625000e+03  2.324234619140625000e+03  2.312253662109375000e+03  2.300859375000000000e+03  2.291775390625000000e+03  2.281208496093750000e+03  2.270522705078125000e+03  2.256608642578125000e+03  2.241595947265625000e+03  2.225765869140625000e+03  2.211092529296875000e+03  2.193302001953125000e+03  2.180395751953125000e+03  2.174321289062500000e+03  2.170208740234375000e+03  2.165795654296875000e+03  2.161604003906250000e+03  2.156859619140625000e+03  2.151863525390625000e+03  2.147518798828125000e+03  2.143521240234375000e+03  2.139071777343750000e+03  2.134774902343750000e+03  2.130807617187500000e+03  2.126684082031250000e+03  2.124035888671875000e+03  2.121881347656250000e+03  2.118120849609375000e+03  2.112799316406250000e+03  2.107977050781250000e+03  2.103168701171875000e+03  2.099701171875000000e+03  2.095314941406250000e+03  2.088214355468750000e+03  2.080606689453125000e+03  2.072985839843750000e+03  2.064040527343750000e+03  2.056353027343750000e+03  2.049446533203125000e+03  2.044820190429687500e+03  2.040294677734375000e+03  2.036908813476562500e+03  2.033081787109375000e+03  2.030623901367187500e+03  2.028216552734375000e+03  2.026139770507812500e+03  2.023958618164062500e+03  2.022162231445312500e+03  2.021786987304687500e+03  2.021540771484375000e+03  2.021829711914062500e+03  2.022456787109375000e+03  2.023962158203125000e+03  2.025145996093750000e+03  2.025580932617187500e+03  2.025889404296875000e+03  2.026355468750000000e+03  2.026025268554687500e+03  2.024354370117187500e+03  2.021038452148437500e+03  2.016329711914062500e+03  2.009191162109375000e+03  2.000564331054687500e+03  1.996561767578125000e+03  1.995347534179687500e+03  1.996410034179687500e+03  1.998631835937500000e+03  2.000995849609375000e+03  2.000234497070312500e+03  2.002957031250000000e+03  2.005855590820312500e+03  2.008901000976562500e+03  2.009965209960937500e+03  2.012845825195312500e+03  2.016095947265625000e+03  2.018282226562500000e+03  2.020739624023437500e+03  2.020779052734375000e+03  2.019177612304687500e+03  2.015388427734375000e+03  2.011953491210937500e+03  2.011902954101562500e+03  2.017221923828125000e+03  2.022856079101562500e+03  2.027509155273437500e+03  2.032036010742187500e+03  2.036050659179687500e+03  2.038385009765625000e+03  2.037315673828125000e+03  2.034462280273437500e+03  2.031641235351562500e+03  2.030005615234375000e+03  2.027828369140625000e+03  2.024728515625000000e+03  2.013920166015625000e+03  2.005751708984375000e+03  2.009410034179687500e+03  2.015494140625000000e+03  2.021668090820312500e+03  2.025846557617187500e+03  2.026990966796875000e+03  2.026632690429687500e+03  2.024938110351562500e+03  2.022442382812500000e+03  2.019923339843750000e+03  2.018181030273437500e+03
2.328948974609375000e+03  2.345380615234375000e+03  2.353694824218750000e+03  2.361511718750000000e+03  2.368199218750000000e+03  2.370949951171875000e+03  2.364842285156250000e+03  2.348202392578125000e+03  2.331677246093750000e+03  2.315186035156250000e+03  2.302728515625000000e+03  2.292794677734375000e+03  2.282435546875000000e+03  2.274868652343750000e+03  2.265027099609375000e+03  2.251668945312500000e+03  2.236909423828125000e+03  2.221334228515625000e+03  2.206306640625000000e+03  2.188448242187500000e+03  2.174622558593750000e+03  2.168000732421875000e+03  2.163156494140625000e+03  2.159201904296875000e+03  2.155836914062500000e+03  2.151648925781250000e+03  2.146669677734375000e+03  2.142244873046875000e+03  2.138023925781250000e+03  2.133809570312500000e+03  2.130118164062500000e+03  2.126524414062500000e+03  2.122518554687500000e+03  2.119556152343750000e+03  2.117323486328125000e+03  2.114623535156250000e+03  2.111537109375000000e+03  2.107167236328125000e+03  2.101881591796875000e+03  2.097983886718750000e+03  2.090661376953125000e+03  2.083309082031250000e+03  2.076178466796875000e+03  2.068417236328125000e+03  2.060648193359375000e+03  2.053925292968750000e+03  2.047217895507812500e+03  2.042883422851562500e+03  2.037812866210937500e+03  2.036670166015625000e+03  2.037087280273437500e+03  2.035807006835937500e+03  2.033012939453125000e+03  2.029738403320312500e+03  2.026182739257812500e+03  2.022859008789062500e+03  2.020181640625000000e+03  2.018625000000000000e+03  2.018560424804687500e+03  2.019287475585937500e+03  2.019845336914062500e+03  2.020036865234375000e+03  2.019977416992187500e+03  2.020326293945312500e+03  2.021957397460937500e+03  2.022495117187500000e+03  2.020907348632812500e+03  2.017537719726562500e+03  2.014616699218750000e+03  2.009636108398437500e+03  2.001768188476562500e+03  1.996960571289062500e+03  1.993746948242187500e+03  1.992778564453125000e+03  1.993482543945312500e+03  1.994278442382812500e+03  1.995848754882812500e+03  1.997214355468750000e+03  1.998908203125000000e+03  1.999729370117187500e+03  2.002558349609375000e+03  2.006278320312500000e+03  2.009796630859375000e+03  2.011206298828125000e+03  2.011381103515625000e+03  2.010646972656250000e+03  2.009626586914062500e+03  2.008357299804687500e+03  2.005526123046875000e+03  2.007613891601562500e+03  2.011588989257812500e+03  2.016882812500000000e+03  2.022275756835937500e+03  2.027017944335937500e+03  2.030750488281250000e+03  2.032601318359375000e+03  2.030468139648437500e+03  2.027681762695312500e+03  2.027518798828125000e+03  2.028139770507812500e+03  2.025184204101562500e+03  2.018143310546875000e+03  2.008353515625000000e+03  2.002271240234375000e+03  2.009352905273437500e+03  2.016033447265625000e+03  2.020119628906250000e+03  2.023597900390625000e+03  2.025005371093750000e+03  2.024910766601562500e+03  2.023667358398437500e+03  2.021462280273437500e+03  2.018730712890625000e+03  2.015567382812500000e+03
2.336490722656250000e+03  2.352055419921875000e+03  2.364031982421875000e+03  2.378680419921875000e+03  2.389283447265625000e+03  2.379951416015625000e+03  2.363966796875000000e+03  2.341968261718750000e+03  2.322311767578125000e+03  2.303992187500000000e+03  2.296841552734375000e+03  2.288194824218750000e+03  2.279173339843750000e+03  2.271634277343750000e+03  2.261308105468750000e+03  2.248304687500000000e+03  2.233848632812500000e+03  2.219483886718750000e+03  2.204456787109375000e+03  2.188184814453125000e+03  2.173179199218750000e+03  2.162555664062500000e+03  2.157800537109375000e+03  2.154047851562500000e+03  2.149942138671875000e+03  2.145354736328125000e+03  2.140704345703125000e+03  2.136875244140625000e+03  2.133296142578125000e+03  2.129562744140625000e+03  2.125584716796875000e+03  2.121869140625000000e+03  2.118788330078125000e+03  2.116258056640625000e+03  2.114417236328125000e+03  2.111979003906250000e+03  2.108537109375000000e+03  2.103742675781250000e+03  2.100719726562500000e+03  2.098987304687500000e+03  2.089420410156250000e+03  2.080491455078125000e+03  2.071665283203125000e+03  2.063551513671875000e+03  2.058346435546875000e+03  2.052719970703125000e+03  2.046941894531250000e+03  2.041752563476562500e+03  2.041131591796875000e+03  2.042479858398437500e+03  2.042558959960937500e+03  2.041257446289062500e+03  2.039222290039062500e+03  2.036038452148437500e+03  2.031630371093750000e+03  2.026489990234375000e+03  2.022043579101562500e+03  2.018401000976562500e+03  2.016244262695312500e+03  2.014485839843750000e+03  2.015232543945312500e+03  2.014755126953125000e+03  2.014203002929687500e+03  2.014060546875000000e+03  2.015868286132812500e+03  2.017189331054687500e+03  2.016534912109375000e+03  2.014948730468750000e+03  2.012864013671875000e+03  2.007601196289062500e+03  2.002878906250000000e+03  1.998308837890625000e+03  1.992839233398437500e+03  1.990422973632812500e+03  1.989800781250000000e+03  1.989944824218750000e+03  1.990109375000000000e+03  1.990558227539062500e+03  1.990881469726562500e+03  1.992750000000000000e+03  1.995400756835937500e+03  1.998330932617187500e+03  2.000623657226562500e+03  2.002362548828125000e+03  2.003514404296875000e+03  2.003552124023437500e+03  2.001623901367187500e+03  1.998976196289062500e+03  1.998513305664062500e+03  2.002503417968750000e+03  2.006909301757812500e+03  2.011379760742187500e+03  2.015897460937500000e+03  2.020262329101562500e+03  2.023327392578125000e+03  2.024481689453125000e+03  2.024425781250000000e+03  2.021687622070312500e+03  2.021425537109375000e+03  2.023489624023437500e+03  2.019035400390625000e+03  2.008776977539062500e+03  1.998000610351562500e+03  2.000054687500000000e+03  2.006507324218750000e+03  2.013175415039062500e+03  2.016656494140625000e+03  2.019970581054687500e+03  2.022005737304687500e+03  2.022305175781250000e+03  2.021467285156250000e+03  2.019244873046875000e+03  2.016871337890625000e+03  2.013922607421875000e+03
2.343127685546875000e+03  2.359383789062500000e+03  2.374588378906250000e+03  2.389277099609375000e+03  2.389125244140625000e+03  2.375350830078125000e+03  2.356992187500000000e+03  2.339348632812500000e+03  2.316759033203125000e+03  2.299378906250000000e+03  2.290890136718750000e+03  2.282232910156250000e+03  2.274973388671875000e+03  2.267918945312500000e+03  2.257206542968750000e+03  2.245575439453125000e+03  2.230283691406250000e+03  2.217585693359375000e+03  2.203528076171875000e+03  2.188750000000000000e+03  2.174998779296875000e+03  2.161675537109375000e+03  2.154522949218750000e+03  2.148750488281250000e+03  2.144024414062500000e+03  2.139926513671875000e+03  2.135647949218750000e+03  2.132108154296875000e+03  2.128480224609375000e+03  2.125070312500000000e+03  2.121512451171875000e+03  2.118581787109375000e+03  2.115594970703125000e+03  2.113120849609375000e+03  2.110449462890625000e+03  2.107353759765625000e+03  2.103546386718750000e+03  2.099591308593750000e+03  2.096665283203125000e+03  2.092666748046875000e+03  2.085501708984375000e+03  2.076009277343750000e+03  2.067628173828125000e+03  2.060466796875000000e+03  2.054945800781250000e+03  2.050383789062500000e+03  2.046552856445312500e+03  2.048718994140625000e+03  2.047147460937500000e+03  2.047119018554687500e+03  2.048468994140625000e+03  2.050025146484375000e+03  2.048378906250000000e+03  2.043248535156250000e+03  2.037287841796875000e+03  2.030380004882812500e+03  2.024285766601562500e+03  2.020278076171875000e+03  2.016550292968750000e+03  2.013831787109375000e+03  2.011755981445312500e+03  2.009692749023437500e+03  2.007463745117187500e+03  2.005151489257812500e+03  2.004796997070312500e+03  2.010611816406250000e+03  2.011923706054687500e+03  2.010754638671875000e+03  2.007763061523437500e+03  2.004015869140625000e+03  2.002456420898437500e+03  1.998461914062500000e+03  1.992522949218750000e+03  1.990622314453125000e+03  1.988902099609375000e+03  1.986104736328125000e+03  1.985814575195312500e+03  1.986177368164062500e+03  1.986002685546875000e+03  1.986141357421875000e+03  1.986740112304687500e+03  1.988533569335937500e+03  1.991671752929687500e+03  1.994380249023437500e+03  1.995243530273437500e+03  1.994908935546875000e+03  1.993211181640625000e+03  1.991475708007812500e+03  1.994237060546875000e+03  1.998261230468750000e+03  2.002530761718750000e+03  2.006057495117187500e+03  2.009476928710937500e+03  2.013414184570312500e+03  2.016306030273437500e+03  2.016419921875000000e+03  2.015218750000000000e+03  2.012320190429687500e+03  2.008644775390625000e+03  2.011716064453125000e+03  2.008058471679687500e+03  1.996648681640625000e+03  1.987523803710937500e+03  1.993268798828125000e+03  2.000270751953125000e+03  2.007567871093750000e+03  2.013293823242187500e+03  2.015615478515625000e+03  2.016817016601562500e+03  2.017721679687500000e+03  2.018805908203125000e+03  2.017857543945312500e+03  2.015760253906250000e+03  2.012858154296875000e+03
2.350443359375000000e+03  2.365584716796875000e+03  2.380649902343750000e+03  2.383614013671875000e+03  2.375705810546875000e+03  2.365441650390625000e+03  2.352120117187500000e+03  2.336393798828125000e+03  2.317099609375000000e+03  2.295581542968750000e+03  2.284541748046875000e+03  2.278185058593750000e+03  2.272126953125000000e+03  2.263855224609375000e+03  2.252602783203125000e+03  2.239594970703125000e+03  2.226252197265625000e+03  2.214755371093750000e+03  2.201041992187500000e+03  2.189180664062500000e+03  2.176958496093750000e+03  2.164980957031250000e+03  2.155645996093750000e+03  2.146944580078125000e+03  2.142040283203125000e+03  2.137177978515625000e+03  2.132467041015625000e+03  2.127984619140625000e+03  2.124481201171875000e+03  2.121569824218750000e+03  2.117868408203125000e+03  2.114646728515625000e+03  2.112044677734375000e+03  2.109108154296875000e+03  2.106420898437500000e+03  2.102951416015625000e+03  2.098928955078125000e+03  2.094166015625000000e+03  2.089145019531250000e+03  2.083795166015625000e+03  2.077581542968750000e+03  2.069156005859375000e+03  2.061923339843750000e+03  2.057258544921875000e+03  2.052726074218750000e+03  2.049136718750000000e+03  2.051336425781250000e+03  2.056090087890625000e+03  2.058388671875000000e+03  2.059645507812500000e+03  2.062786376953125000e+03  2.062673339843750000e+03  2.061724853515625000e+03  2.053431396484375000e+03  2.044824462890625000e+03  2.035719116210937500e+03  2.026636108398437500e+03  2.022235107421875000e+03  2.018383544921875000e+03  2.015474121093750000e+03  2.012614624023437500e+03  2.012725219726562500e+03  2.010868896484375000e+03  2.006168090820312500e+03  2.002206298828125000e+03  1.999020141601562500e+03  2.000424072265625000e+03  2.000918579101562500e+03  2.001672973632812500e+03  1.999892944335937500e+03  1.997809936523437500e+03  1.992764526367187500e+03  1.990307739257812500e+03  1.990548950195312500e+03  1.990592163085937500e+03  1.987692138671875000e+03  1.983145263671875000e+03  1.981926269531250000e+03  1.982173706054687500e+03  1.983000488281250000e+03  1.983301635742187500e+03  1.983935668945312500e+03  1.984516723632812500e+03  1.985595458984375000e+03  1.986417236328125000e+03  1.988131591796875000e+03  1.987027221679687500e+03  1.985868530273437500e+03  1.988960449218750000e+03  1.993445312500000000e+03  1.997736572265625000e+03  2.001618896484375000e+03  2.004125976562500000e+03  2.006119628906250000e+03  2.007621704101562500e+03  2.007017578125000000e+03  2.006912719726562500e+03  2.004793212890625000e+03  1.998799804687500000e+03  1.995585693359375000e+03  1.993943359375000000e+03  1.986493286132812500e+03  1.979486328125000000e+03  1.986064208984375000e+03  1.989957519531250000e+03  1.998163085937500000e+03  2.005809814453125000e+03  2.012847045898437500e+03  2.014534423828125000e+03  2.015886962890625000e+03  2.016573120117187500e+03  2.016645629882812500e+03  2.015415039062500000e+03  2.012068237304687500e+03
2.358274169921875000e+03  2.373149414062500000e+03  2.379830810546875000e+03  2.374418701171875000e+03  2.366534423828125000e+03  2.358099609375000000e+03  2.347968994140625000e+03  2.334729492187500000e+03  2.317340087890625000e+03  2.295413330078125000e+03  2.280564208984375000e+03  2.273352294921875000e+03  2.266957275390625000e+03  2.259073730468750000e+03  2.248315917968750000e+03  2.235887939453125000e+03  2.223730957031250000e+03  2.211580322265625000e+03  2.200453857421875000e+03  2.189061523437500000e+03  2.177827636718750000e+03  2.165770019531250000e+03  2.155975585937500000e+03  2.148266357421875000e+03  2.142693847656250000e+03  2.136465576171875000e+03  2.132166015625000000e+03  2.127961425781250000e+03  2.123916015625000000e+03  2.119044677734375000e+03  2.114679443359375000e+03  2.111222656250000000e+03  2.108523925781250000e+03  2.105218017578125000e+03  2.101904541015625000e+03  2.097980224609375000e+03  2.093334472656250000e+03  2.088809814453125000e+03  2.083829101562500000e+03  2.076994628906250000e+03  2.070260498046875000e+03  2.066028320312500000e+03  2.062860839843750000e+03  2.058452880859375000e+03  2.053830810546875000e+03  2.052448242187500000e+03  2.057514892578125000e+03  2.065004150390625000e+03  2.071750488281250000e+03  2.074745361328125000e+03  2.075366699218750000e+03  2.075395751953125000e+03  2.075699951171875000e+03  2.067208496093750000e+03  2.052104003906250000e+03  2.040115478515625000e+03  2.030683227539062500e+03  2.023934570312500000e+03  2.020511596679687500e+03  2.016797485351562500e+03  2.014671508789062500e+03  2.015539306640625000e+03  2.014460815429687500e+03  2.011171264648437500e+03  2.004611572265625000e+03  1.998258666992187500e+03  1.993177368164062500e+03  1.990180053710937500e+03  1.989695068359375000e+03  1.987824462890625000e+03  1.987199096679687500e+03  1.988176391601562500e+03  1.988678833007812500e+03  1.989694091796875000e+03  1.991103027343750000e+03  1.990575317382812500e+03  1.987350463867187500e+03  1.979745117187500000e+03  1.979153930664062500e+03  1.979627685546875000e+03  1.979433349609375000e+03  1.978869262695312500e+03  1.978697509765625000e+03  1.980184570312500000e+03  1.980327758789062500e+03  1.979126220703125000e+03  1.977286621093750000e+03  1.980955444335937500e+03  1.985520019531250000e+03  1.989473388671875000e+03  1.993280029296875000e+03  1.996027343750000000e+03  1.997612670898437500e+03  1.998704101562500000e+03  1.999927124023437500e+03  1.999522216796875000e+03  1.999488525390625000e+03  1.997041137695312500e+03  1.990679077148437500e+03  1.986972045898437500e+03  1.986359252929687500e+03  1.975899291992187500e+03  1.974029418945312500e+03  1.977869140625000000e+03  1.981914184570312500e+03  1.988837768554687500e+03  1.996718750000000000e+03  2.004705444335937500e+03  2.012627807617187500e+03  2.014538940429687500e+03  2.015132934570312500e+03  2.015204467773437500e+03  2.014699218750000000e+03  2.012964721679687500e+03
2.364116943359375000e+03  2.373786865234375000e+03  2.373246582031250000e+03  2.364615966796875000e+03  2.356572753906250000e+03  2.350060791015625000e+03  2.342073974609375000e+03  2.330961914062500000e+03  2.313731689453125000e+03  2.295200683593750000e+03  2.278243164062500000e+03  2.267971923828125000e+03  2.261823486328125000e+03  2.254118408203125000e+03  2.243725585937500000e+03  2.232884521484375000e+03  2.220366455078125000e+03  2.210285156250000000e+03  2.200182861328125000e+03  2.189342285156250000e+03  2.178653320312500000e+03  2.168508056640625000e+03  2.159616699218750000e+03  2.152000732421875000e+03  2.145643798828125000e+03  2.137674804687500000e+03  2.132669921875000000e+03  2.128371582031250000e+03  2.123783691406250000e+03  2.118989990234375000e+03  2.114333007812500000e+03  2.110059814453125000e+03  2.104930419921875000e+03  2.100909912109375000e+03  2.097674804687500000e+03  2.094155761718750000e+03  2.088915283203125000e+03  2.083773681640625000e+03  2.079048828125000000e+03  2.075782958984375000e+03  2.073686767578125000e+03  2.069503173828125000e+03  2.065290283203125000e+03  2.060448730468750000e+03  2.056526855468750000e+03  2.057088867187500000e+03  2.062180664062500000e+03  2.072632568359375000e+03  2.076639892578125000e+03  2.077622802734375000e+03  2.078176025390625000e+03  2.078188476562500000e+03  2.078370849609375000e+03  2.071136474609375000e+03  2.058120361328125000e+03  2.047002929687500000e+03  2.036957763671875000e+03  2.027104736328125000e+03  2.022914306640625000e+03  2.019227050781250000e+03  2.018014770507812500e+03  2.017970947265625000e+03  2.017050903320312500e+03  2.014106933593750000e+03  2.006435424804687500e+03  1.999864990234375000e+03  1.994945434570312500e+03  1.990704711914062500e+03  1.988773071289062500e+03  1.987085693359375000e+03  1.985511474609375000e+03  1.984208496093750000e+03  1.982796875000000000e+03  1.983545410156250000e+03  1.989546875000000000e+03  1.990051025390625000e+03  1.987924194335937500e+03  1.978581665039062500e+03  1.976374755859375000e+03  1.976595703125000000e+03  1.976567382812500000e+03  1.975958129882812500e+03  1.975306152343750000e+03  1.975480957031250000e+03  1.975274658203125000e+03  1.974779541015625000e+03  1.974870117187500000e+03  1.977232910156250000e+03  1.981562011718750000e+03  1.985411254882812500e+03  1.989112792968750000e+03  1.991134399414062500e+03  1.992252563476562500e+03  1.992641235351562500e+03  1.991130981445312500e+03  1.989741210937500000e+03  1.991119018554687500e+03  1.991282348632812500e+03  1.986036376953125000e+03  1.981099365234375000e+03  1.978850097656250000e+03  1.972689697265625000e+03  1.968539062500000000e+03  1.971258544921875000e+03  1.975139770507812500e+03  1.980715698242187500e+03  1.987779052734375000e+03  1.996433227539062500e+03  2.005558349609375000e+03  2.012402709960937500e+03  2.013465820312500000e+03  2.013366455078125000e+03  2.013030151367187500e+03  2.009900756835937500e+03
2.368520019531250000e+03  2.370881103515625000e+03  2.365361572265625000e+03  2.355995849609375000e+03  2.350834228515625000e+03  2.345511474609375000e+03  2.337127929687500000e+03  2.325570312500000000e+03  2.311769042968750000e+03  2.293238037109375000e+03  2.276222900390625000e+03  2.265416259765625000e+03  2.255456298828125000e+03  2.245834472656250000e+03  2.238254882812500000e+03  2.229490478515625000e+03  2.217811035156250000e+03  2.209200683593750000e+03  2.199431152343750000e+03  2.188162109375000000e+03  2.178318115234375000e+03  2.170588134765625000e+03  2.162744140625000000e+03  2.157277343750000000e+03  2.148987792968750000e+03  2.140917480468750000e+03  2.134167480468750000e+03  2.128439453125000000e+03  2.123937500000000000e+03  2.118261718750000000e+03  2.114399658203125000e+03  2.109752929687500000e+03  2.104310058593750000e+03  2.099498779296875000e+03  2.095119384765625000e+03  2.090812255859375000e+03  2.086234130859375000e+03  2.083090576171875000e+03  2.080401367187500000e+03  2.078907470703125000e+03  2.076973632812500000e+03  2.074622070312500000e+03  2.068669677734375000e+03  2.060818847656250000e+03  2.058491699218750000e+03  2.059693115234375000e+03  2.066288330078125000e+03  2.074672851562500000e+03  2.078088378906250000e+03  2.079399658203125000e+03  2.079952636718750000e+03  2.079349609375000000e+03  2.076483642578125000e+03  2.067500976562500000e+03  2.058610107421875000e+03  2.050501953125000000e+03  2.041105102539062500e+03  2.033438842773437500e+03  2.026478393554687500e+03  2.022235107421875000e+03  2.022450561523437500e+03  2.022737915039062500e+03  2.019467895507812500e+03  2.014949462890625000e+03  2.007972900390625000e+03  2.001011352539062500e+03  1.997026733398437500e+03  1.993495849609375000e+03  1.991563720703125000e+03  1.989953491210937500e+03  1.987575561523437500e+03  1.984862548828125000e+03  1.982975463867187500e+03  1.980975463867187500e+03  1.979893554687500000e+03  1.978750610351562500e+03  1.977063720703125000e+03  1.976027832031250000e+03  1.975380004882812500e+03  1.975104980468750000e+03  1.974808715820312500e+03  1.974344360351562500e+03  1.973890136718750000e+03  1.973813232421875000e+03  1.973573852539062500e+03  1.973069458007812500e+03  1.973595336914062500e+03  1.975239624023437500e+03  1.978307495117187500e+03  1.981640014648437500e+03  1.984578247070312500e+03  1.985851928710937500e+03  1.986069946289062500e+03  1.985806274414062500e+03  1.984738891601562500e+03  1.983212158203125000e+03  1.983767700195312500e+03  1.983603149414062500e+03  1.977639038085937500e+03  1.972629272460937500e+03  1.972699340820312500e+03  1.966597290039062500e+03  1.964551879882812500e+03  1.965452636718750000e+03  1.968897094726562500e+03  1.973205688476562500e+03  1.979644897460937500e+03  1.987237182617187500e+03  1.994133422851562500e+03  2.000656127929687500e+03  2.002084106445312500e+03  2.004651611328125000e+03  2.003460205078125000e+03  1.999227416992187500e+03
2.370873291015625000e+03  2.367815917968750000e+03  2.360969970703125000e+03  2.352513671875000000e+03  2.346107177734375000e+03  2.340103027343750000e+03  2.332260009765625000e+03  2.323026611328125000e+03  2.310295166015625000e+03  2.292682373046875000e+03  2.275362060546875000e+03  2.263209716796875000e+03  2.253784179687500000e+03  2.241635742187500000e+03  2.233543212890625000e+03  2.222729980468750000e+03  2.212392089843750000e+03  2.203406738281250000e+03  2.194399902343750000e+03  2.184368164062500000e+03  2.175517578125000000e+03  2.169008300781250000e+03  2.162326171875000000e+03  2.156331298828125000e+03  2.148898925781250000e+03  2.141036376953125000e+03  2.134765380859375000e+03  2.128690673828125000e+03  2.124596191406250000e+03  2.121418945312500000e+03  2.117035888671875000e+03  2.112549072265625000e+03  2.109299560546875000e+03  2.102147460937500000e+03  2.097127441406250000e+03  2.092375488281250000e+03  2.088761962890625000e+03  2.087221923828125000e+03  2.085541259765625000e+03  2.083469726562500000e+03  2.081695556640625000e+03  2.078207763671875000e+03  2.073655517578125000e+03  2.063517578125000000e+03  2.060740234375000000e+03  2.061347900390625000e+03  2.067129394531250000e+03  2.074039794921875000e+03  2.078010009765625000e+03  2.080356201171875000e+03  2.081093505859375000e+03  2.078772216796875000e+03  2.073928955078125000e+03  2.065028808593750000e+03  2.057188476562500000e+03  2.050928466796875000e+03  2.043786010742187500e+03  2.036846679687500000e+03  2.028136230468750000e+03  2.025699707031250000e+03  2.027148681640625000e+03  2.026799560546875000e+03  2.022974243164062500e+03  2.013922119140625000e+03  2.007595825195312500e+03  2.001918579101562500e+03  1.998358642578125000e+03  1.995712646484375000e+03  1.993538452148437500e+03  1.991250610351562500e+03  1.988504028320312500e+03  1.986083862304687500e+03  1.984086059570312500e+03  1.982146972656250000e+03  1.980622924804687500e+03  1.979416992187500000e+03  1.978182006835937500e+03  1.976679443359375000e+03  1.975338378906250000e+03  1.974533691406250000e+03  1.974040771484375000e+03  1.973577514648437500e+03  1.973022705078125000e+03  1.972608398437500000e+03  1.972063232421875000e+03  1.971191650390625000e+03  1.971362548828125000e+03  1.972947631835937500e+03  1.975089599609375000e+03  1.977858154296875000e+03  1.978741088867187500e+03  1.978967651367187500e+03  1.979991333007812500e+03  1.980417114257812500e+03  1.978411987304687500e+03  1.974649047851562500e+03  1.972104492187500000e+03  1.971453735351562500e+03  1.967909545898437500e+03  1.963461059570312500e+03  1.962698974609375000e+03  1.961069824218750000e+03  1.960030151367187500e+03  1.960852294921875000e+03  1.963712036132812500e+03  1.966735107421875000e+03  1.970692382812500000e+03  1.974799194335937500e+03  1.980179443359375000e+03  1.985552124023437500e+03  1.987773437500000000e+03  1.988229370117187500e+03  1.987397705078125000e+03  1.984219970703125000e+03
2.369531738281250000e+03  2.363799560546875000e+03  2.355969726562500000e+03  2.349164794921875000e+03  2.342957275390625000e+03  2.336179199218750000e+03  2.328411865234375000e+03  2.319670898437500000e+03  2.307993164062500000e+03  2.290942871093750000e+03  2.275318603515625000e+03  2.265387695312500000e+03  2.258291503906250000e+03  2.245682861328125000e+03  2.234405517578125000e+03  2.223000732421875000e+03  2.213586914062500000e+03  2.204120117187500000e+03  2.195038330078125000e+03  2.183312500000000000e+03  2.174217041015625000e+03  2.167498779296875000e+03  2.162547119140625000e+03  2.156150878906250000e+03  2.148862060546875000e+03  2.142221191406250000e+03  2.135420166015625000e+03  2.130889648437500000e+03  2.127202636718750000e+03  2.124485107421875000e+03  2.120861083984375000e+03  2.116772460937500000e+03  2.112716064453125000e+03  2.106686035156250000e+03  2.100867431640625000e+03  2.097265625000000000e+03  2.095979492187500000e+03  2.093061279296875000e+03  2.089506591796875000e+03  2.086750976562500000e+03  2.087178466796875000e+03  2.084614257812500000e+03  2.074962402343750000e+03  2.068538574218750000e+03  2.064116943359375000e+03  2.062776123046875000e+03  2.066845703125000000e+03  2.071798339843750000e+03  2.076393798828125000e+03  2.079927246093750000e+03  2.081007812500000000e+03  2.076525390625000000e+03  2.070260498046875000e+03  2.061648925781250000e+03  2.055873046875000000e+03  2.050351318359375000e+03  2.043846435546875000e+03  2.036998657226562500e+03  2.030983032226562500e+03  2.030272827148437500e+03  2.031460815429687500e+03  2.029862670898437500e+03  2.026273559570312500e+03  2.015914550781250000e+03  2.010193481445312500e+03  2.004427612304687500e+03  2.000138305664062500e+03  1.997607543945312500e+03  1.995169311523437500e+03  1.992209350585937500e+03  1.989275634765625000e+03  1.987377319335937500e+03  1.985400512695312500e+03  1.983714721679687500e+03  1.982460815429687500e+03  1.981233276367187500e+03  1.980297485351562500e+03  1.978393676757812500e+03  1.976308349609375000e+03  1.974942382812500000e+03  1.973794067382812500e+03  1.973192871093750000e+03  1.972336914062500000e+03  1.971699340820312500e+03  1.971040771484375000e+03  1.969839843750000000e+03  1.968692871093750000e+03  1.967701538085937500e+03  1.968964233398437500e+03  1.971651489257812500e+03  1.973016479492187500e+03  1.972639038085937500e+03  1.971704833984375000e+03  1.971950683593750000e+03  1.970968994140625000e+03  1.969026855468750000e+03  1.964243286132812500e+03  1.962143066406250000e+03  1.960975097656250000e+03  1.959518432617187500e+03  1.958690673828125000e+03  1.958054199218750000e+03  1.956586791992187500e+03  1.956372802734375000e+03  1.956380249023437500e+03  1.958491577148437500e+03  1.962399902343750000e+03  1.965891479492187500e+03  1.968339111328125000e+03  1.970364257812500000e+03  1.971941894531250000e+03  1.972954467773437500e+03  1.974218383789062500e+03  1.972962158203125000e+03
2.366759765625000000e+03  2.359363769531250000e+03  2.351953857421875000e+03  2.344091796875000000e+03  2.338693847656250000e+03  2.331697265625000000e+03  2.325543457031250000e+03  2.317589111328125000e+03  2.307544433593750000e+03  2.291233154296875000e+03  2.277679199218750000e+03  2.270416259765625000e+03  2.260995361328125000e+03  2.246610351562500000e+03  2.236197509765625000e+03  2.226970214843750000e+03  2.219268554687500000e+03  2.211187500000000000e+03  2.201064697265625000e+03  2.188318115234375000e+03  2.177594970703125000e+03  2.171095703125000000e+03  2.167861816406250000e+03  2.162251220703125000e+03  2.155738281250000000e+03  2.148135009765625000e+03  2.140422363281250000e+03  2.134051269531250000e+03  2.130497558593750000e+03  2.127310546875000000e+03  2.123957763671875000e+03  2.119206298828125000e+03  2.114132568359375000e+03  2.108843994140625000e+03  2.104722412109375000e+03  2.102519531250000000e+03  2.100556884765625000e+03  2.097665039062500000e+03  2.094325927734375000e+03  2.091671386718750000e+03  2.090697753906250000e+03  2.087830078125000000e+03  2.079985351562500000e+03  2.072974609375000000e+03  2.067433349609375000e+03  2.066195312500000000e+03  2.068443603515625000e+03  2.072045898437500000e+03  2.076252929687500000e+03  2.080842285156250000e+03  2.080844970703125000e+03  2.074957519531250000e+03  2.066838867187500000e+03  2.059622558593750000e+03  2.055099365234375000e+03  2.049230712890625000e+03  2.044038818359375000e+03  2.037914916992187500e+03  2.034339965820312500e+03  2.034983398437500000e+03  2.037113281250000000e+03  2.036912475585937500e+03  2.030656860351562500e+03  2.022173217773437500e+03  2.014905151367187500e+03  2.009362182617187500e+03  2.003397094726562500e+03  1.999860595703125000e+03  1.997020996093750000e+03  1.994206787109375000e+03  1.991516479492187500e+03  1.989012817382812500e+03  1.987092529296875000e+03  1.985806762695312500e+03  1.984689331054687500e+03  1.983548217773437500e+03  1.982525512695312500e+03  1.980446044921875000e+03  1.978799560546875000e+03  1.976750610351562500e+03  1.975213378906250000e+03  1.974267822265625000e+03  1.973442749023437500e+03  1.972529541015625000e+03  1.971954589843750000e+03  1.971573730468750000e+03  1.969021972656250000e+03  1.967479858398437500e+03  1.966151489257812500e+03  1.964925903320312500e+03  1.963468017578125000e+03  1.963099366234375111e+03  1.963099365234375000e+03  1.962916626976562611e+03  1.962916625976562500e+03  1.962034057617187500e+03  1.961247680664062500e+03  1.960659790039062500e+03  1.959185302734375000e+03  1.957917114257812500e+03  1.955616088867187500e+03  1.953876098632812500e+03  1.952795166015625000e+03  1.951933837890625000e+03  1.951398437500000000e+03  1.950726806640625000e+03  1.952666137695312500e+03  1.954463623046875000e+03  1.957236938476562500e+03  1.960105224609375000e+03  1.961841430664062500e+03  1.963066040039062500e+03  1.963709228515625000e+03  1.961893798828125000e+03
2.365105712890625000e+03  2.356763183593750000e+03  2.348639160156250000e+03  2.341015380859375000e+03  2.336104248046875000e+03  2.330935058593750000e+03  2.323637451171875000e+03  2.315647949218750000e+03  2.305147949218750000e+03  2.290336181640625000e+03  2.281755371093750000e+03  2.272179443359375000e+03  2.264051757812500000e+03  2.252970947265625000e+03  2.240462646484375000e+03  2.231529785156250000e+03  2.223970947265625000e+03  2.214819580078125000e+03  2.204361083984375000e+03  2.192001708984375000e+03  2.181292968750000000e+03  2.176521484375000000e+03  2.173799316406250000e+03  2.169128662109375000e+03  2.162274658203125000e+03  2.153697509765625000e+03  2.144770263671875000e+03  2.136007812500000000e+03  2.132705078125000000e+03  2.129983398437500000e+03  2.125882812500000000e+03  2.120976806640625000e+03  2.115885742187500000e+03  2.111860595703125000e+03  2.110256835937500000e+03  2.107445800781250000e+03  2.104059082031250000e+03  2.100867675781250000e+03  2.097196044921875000e+03  2.094904296875000000e+03  2.093617919921875000e+03  2.090615722656250000e+03  2.085572265625000000e+03  2.076290283203125000e+03  2.070210205078125000e+03  2.069331298828125000e+03  2.070845703125000000e+03  2.072493652343750000e+03  2.077938720703125000e+03  2.082131591796875000e+03  2.082623779296875000e+03  2.076330810546875000e+03  2.067240234375000000e+03  2.060244140625000000e+03  2.056014892578125000e+03  2.050113525390625000e+03  2.045109863281250000e+03  2.040323608398437500e+03  2.039735107421875000e+03  2.041240844726562500e+03  2.044340942382812500e+03  2.042656250000000000e+03  2.038500732421875000e+03  2.030749145507812500e+03  2.021713134765625000e+03  2.015150512695312500e+03  2.008535644531250000e+03  2.002417480468750000e+03  1.999036376953125000e+03  1.996865356445312500e+03  1.994232055664062500e+03  1.991062744140625000e+03  1.988387084960937500e+03  1.987355346679687500e+03  1.987074462890625000e+03  1.986589843750000000e+03  1.985668945312500000e+03  1.983936401367187500e+03  1.981714355468750000e+03  1.978669067382812500e+03  1.976161621093750000e+03  1.975990478515625000e+03  1.975906860351562500e+03  1.975125976562500000e+03  1.974020874023437500e+03  1.973268066406250000e+03  1.972304077148437500e+03  1.970954223632812500e+03  1.971021484375000000e+03  1.971555297851562500e+03  1.968388183593750000e+03  1.969042114257812500e+03  1.971076171875000000e+03  1.969548461914062500e+03  1.966550292968750000e+03  1.962005859375000000e+03  1.959696289062500000e+03  1.959538085937500000e+03  1.959444213867187500e+03  1.957185791015625000e+03  1.954307617187500000e+03  1.951430297851562500e+03  1.950001708984375000e+03  1.947873779296875000e+03  1.946588256835937500e+03  1.946077514648437500e+03  1.946407348632812500e+03  1.947888793945312500e+03  1.949138793945312500e+03  1.949815673828125000e+03  1.950015869140625000e+03  1.949848266601562500e+03  1.950214843750000000e+03  1.950140258789062500e+03
2.363650146484375000e+03  2.353631591796875000e+03  2.346595458984375000e+03  2.340054443359375000e+03  2.335470214843750000e+03  2.329428955078125000e+03  2.322687988281250000e+03  2.314228759765625000e+03  2.304104492187500000e+03  2.293772216796875000e+03  2.285146972656250000e+03  2.276972412109375000e+03  2.270252441406250000e+03  2.259673339843750000e+03  2.245138183593750000e+03  2.233674072265625000e+03  2.225917968750000000e+03  2.215625732421875000e+03  2.204473388671875000e+03  2.193692138671875000e+03  2.183713134765625000e+03  2.180688720703125000e+03  2.179306884765625000e+03  2.175143066406250000e+03  2.167299072265625000e+03  2.157886230468750000e+03  2.148725585937500000e+03  2.142015380859375000e+03  2.137221923828125000e+03  2.133912841796875000e+03  2.128999755859375000e+03  2.123266601562500000e+03  2.118584960937500000e+03  2.115750732421875000e+03  2.114247070312500000e+03  2.111397460937500000e+03  2.107342041015625000e+03  2.103311767578125000e+03  2.099141113281250000e+03  2.098846923828125000e+03  2.097801757812500000e+03  2.093852783203125000e+03  2.088253662109375000e+03  2.079586425781250000e+03  2.072240966796875000e+03  2.070606445312500000e+03  2.072263916015625000e+03  2.073806884765625000e+03  2.079814208984375000e+03  2.083865966796875000e+03  2.086229980468750000e+03  2.082703125000000000e+03  2.072907470703125000e+03  2.063338623046875000e+03  2.058893066406250000e+03  2.052871337890625000e+03  2.047572509765625000e+03  2.044409179687500000e+03  2.045666137695312500e+03  2.048914306640625000e+03  2.051304687500000000e+03  2.050959228515625000e+03  2.048320556640625000e+03  2.043012817382812500e+03  2.029551513671875000e+03  2.019669677734375000e+03  2.012191772460937500e+03  2.006878173828125000e+03  2.002777587890625000e+03  1.999686279296875000e+03  1.997063598632812500e+03  1.994330200195312500e+03  1.991635742187500000e+03  1.990417968750000000e+03  1.990345336914062500e+03  1.989757446289062500e+03  1.988215087890625000e+03  1.986691894531250000e+03  1.986245971679687500e+03  1.985750000000000000e+03  1.982856323242187500e+03  1.981072753906250000e+03  1.980787109375000000e+03  1.979208374023437500e+03  1.976221923828125000e+03  1.974995971679687500e+03  1.974098388671875000e+03  1.973686645507812500e+03  1.975058105468750000e+03  1.978569335937500000e+03  1.982596191406250000e+03  1.988698364257812500e+03  1.991499023437500000e+03  1.989462646484375000e+03  1.987147705078125000e+03  1.983605468750000000e+03  1.974781738281250000e+03  1.964583129882812500e+03  1.961877441406250000e+03  1.958032958984375000e+03  1.952443725585937500e+03  1.950219238281250000e+03  1.948384399414062500e+03  1.946728515625000000e+03  1.944843750000000000e+03  1.943323120117187500e+03  1.941805175781250000e+03  1.942026123046875000e+03  1.942383056640625000e+03  1.942308593750000000e+03  1.943548583984375000e+03  1.943585327148437500e+03  1.943066040039062500e+03  1.942130126953125000e+03
2.362302978515625000e+03  2.353050537109375000e+03  2.346517578125000000e+03  2.340807861328125000e+03  2.335765380859375000e+03  2.330752929687500000e+03  2.321672607421875000e+03  2.314564697265625000e+03  2.307103027343750000e+03  2.298291259765625000e+03  2.290555664062500000e+03  2.282637207031250000e+03  2.274105957031250000e+03  2.263459228515625000e+03  2.249094482421875000e+03  2.237541748046875000e+03  2.226449218750000000e+03  2.214705078125000000e+03  2.205136230468750000e+03  2.197081298828125000e+03  2.191932617187500000e+03  2.190218505859375000e+03  2.186794433593750000e+03  2.181853027343750000e+03  2.172995117187500000e+03  2.164606201171875000e+03  2.156729736328125000e+03  2.149576660156250000e+03  2.143551513671875000e+03  2.138829101562500000e+03  2.133631591796875000e+03  2.126548828125000000e+03  2.123776367187500000e+03  2.121468261718750000e+03  2.117714843750000000e+03  2.113786621093750000e+03  2.110360107421875000e+03  2.107117187500000000e+03  2.103092773437500000e+03  2.102155761718750000e+03  2.100346191406250000e+03  2.097071044921875000e+03  2.091183105468750000e+03  2.083561035156250000e+03  2.074183105468750000e+03  2.072192871093750000e+03  2.073735107421875000e+03  2.078731933593750000e+03  2.085040039062500000e+03  2.087114746093750000e+03  2.088913818359375000e+03  2.087341796875000000e+03  2.080109863281250000e+03  2.073265869140625000e+03  2.065184326171875000e+03  2.058263183593750000e+03  2.050251220703125000e+03  2.047461303710937500e+03  2.050404052734375000e+03  2.055369628906250000e+03  2.059306640625000000e+03  2.057583984375000000e+03  2.054879150390625000e+03  2.050770507812500000e+03  2.037863769531250000e+03  2.024312622070312500e+03  2.017486328125000000e+03  2.012072875976562500e+03  2.007137573242187500e+03  2.002784179687500000e+03  2.000707397460937500e+03  1.998414062500000000e+03  1.996607788085937500e+03  1.995622558593750000e+03  1.994412475585937500e+03  1.993901489257812500e+03  1.992927246093750000e+03  1.991501342773437500e+03  1.991758666992187500e+03  1.991504272460937500e+03  1.989457275390625000e+03  1.990142456054687500e+03  1.991632568359375000e+03  1.989676879882812500e+03  1.983559570312500000e+03  1.976912963867187500e+03  1.975926147460937500e+03  1.976559082031250000e+03  1.979522460937500000e+03  1.984523315429687500e+03  1.989728027343750000e+03  1.996454101562500000e+03  2.001809448242187500e+03  2.003109252929687500e+03  2.003590087890625000e+03  2.001969238281250000e+03  1.996092285156250000e+03  1.985586669921875000e+03  1.975324951171875000e+03  1.962658691406250000e+03  1.955664062500000000e+03  1.952333496093750000e+03  1.950328369140625000e+03  1.948256103515625000e+03  1.946148681640625000e+03  1.943980224609375000e+03  1.941902709960937500e+03  1.939851562500000000e+03  1.939032348632812500e+03  1.938125610351562500e+03  1.937942504882812500e+03  1.937677246093750000e+03  1.936881713867187500e+03  1.936775024414062500e+03
