2.275290039062500000e+03  2.261781982421875000e+03  2.247117675781250000e+03  2.230905761718750000e+03  2.213020751953125000e+03  2.209086914062500000e+03  2.209125244140625000e+03  2.208529052734375000e+03  2.207139404296875000e+03  2.204490966796875000e+03  2.200361328125000000e+03  2.193056396484375000e+03  2.177964843750000000e+03  2.156963867187500000e+03  2.147257324218750000e+03  2.144402099609375000e+03  2.144275634765625000e+03  2.149150390625000000e+03  2.150316162109375000e+03  2.148371582031250000e+03  2.143951171875000000e+03  2.143412109375000000e+03  2.145062744140625000e+03  2.149297119140625000e+03  2.153895263671875000e+03  2.151047607421875000e+03  2.134856933593750000e+03  2.120099853515625000e+03  2.115295410156250000e+03  2.115537353515625000e+03  2.116602050781250000e+03  2.116805419921875000e+03  2.111476806640625000e+03  2.111884765625000000e+03  2.085975341796875000e+03  2.073891357421875000e+03  2.097424316406250000e+03  2.131324462890625000e+03  2.135335937500000000e+03  2.135751953125000000e+03  2.132365722656250000e+03  2.128214599609375000e+03  2.124543457031250000e+03  2.121597412109375000e+03  2.119882080078125000e+03  2.119366943359375000e+03  2.120261474609375000e+03  2.124868408203125000e+03  2.134061523437500000e+03  2.143736328125000000e+03  2.147016113281250000e+03  2.148156738281250000e+03  2.147928710937500000e+03  2.146293212890625000e+03  2.141100585937500000e+03  2.139230468750000000e+03  2.137499267578125000e+03  2.133554687500000000e+03  2.121715820312500000e+03  2.104245605468750000e+03  2.096334960937500000e+03  2.094145263671875000e+03  2.097078613281250000e+03  2.104546142578125000e+03  2.110255126953125000e+03  2.113170654296875000e+03  2.109988037109375000e+03  2.099418945312500000e+03  2.082766113281250000e+03  2.072932861328125000e+03  2.066060302734375000e+03  2.061001464843750000e+03  2.052945800781250000e+03  2.047434570312500000e+03  2.043864501953125000e+03  2.042521850585937500e+03  2.042460693359375000e+03  2.044613281250000000e+03  2.044328979492187500e+03  2.036505493164062500e+03  2.020231079101562500e+03  2.006957153320312500e+03  1.996404663085937500e+03
2.294316894531250000e+03  2.283411865234375000e+03  2.270868896484375000e+03  2.251977539062500000e+03  2.227241455078125000e+03  2.216656250000000000e+03  2.220479980468750000e+03  2.222225830078125000e+03  2.218923095703125000e+03  2.208726318359375000e+03  2.203498046875000000e+03  2.194307861328125000e+03  2.176585205078125000e+03  2.159147705078125000e+03  2.152596679687500000e+03  2.147927978515625000e+03  2.147363769531250000e+03  2.150928466796875000e+03  2.152032714843750000e+03  2.148316650390625000e+03  2.145218017578125000e+03  2.146300048828125000e+03  2.151030273437500000e+03  2.161133300781250000e+03  2.168417724609375000e+03  2.156876220703125000e+03  2.144414550781250000e+03  2.133846679687500000e+03  2.128364746093750000e+03  2.128158691406250000e+03  2.129217285156250000e+03  2.129427246093750000e+03  2.123279296875000000e+03  2.109302734375000000e+03  2.089021728515625000e+03  2.083647460937500000e+03  2.119303710937500000e+03  2.147574707031250000e+03  2.144729003906250000e+03  2.140518066406250000e+03  2.134605224609375000e+03  2.130433349609375000e+03  2.126731445312500000e+03  2.124040283203125000e+03  2.122159667968750000e+03  2.120284912109375000e+03  2.119821289062500000e+03  2.122114990234375000e+03  2.132653564453125000e+03  2.143216308593750000e+03  2.150832031250000000e+03  2.155094238281250000e+03  2.159865722656250000e+03  2.160515136718750000e+03  2.148200927734375000e+03  2.143676513671875000e+03  2.139634277343750000e+03  2.134775634765625000e+03  2.121314697265625000e+03  2.107590087890625000e+03  2.100830078125000000e+03  2.098621582031250000e+03  2.098978027343750000e+03  2.105166748046875000e+03  2.111988769531250000e+03  2.119912353515625000e+03  2.119105712890625000e+03  2.105436523437500000e+03  2.085440429687500000e+03  2.076234619140625000e+03  2.070015136718750000e+03  2.063315429687500000e+03  2.056886962890625000e+03  2.051993652343750000e+03  2.048057617187500000e+03  2.046541992187500000e+03  2.048902099609375000e+03  2.053449218750000000e+03  2.050489013671875000e+03  2.035795776367187500e+03  2.021512207031250000e+03  2.012509765625000000e+03  1.999475646972656250e+03
2.316581298828125000e+03  2.307879882812500000e+03  2.290252441406250000e+03  2.270149902343750000e+03  2.243000000000000000e+03  2.225839111328125000e+03  2.228336425781250000e+03  2.233045166015625000e+03  2.236870361328125000e+03  2.222592041015625000e+03  2.207771728515625000e+03  2.194731933593750000e+03  2.182434814453125000e+03  2.165357666015625000e+03  2.156901123046875000e+03  2.152933105468750000e+03  2.151992431640625000e+03  2.153027587890625000e+03  2.153158691406250000e+03  2.148732666015625000e+03  2.148697509765625000e+03  2.155732666015625000e+03  2.166104980468750000e+03  2.175665771484375000e+03  2.172354736328125000e+03  2.162275146484375000e+03  2.152720214843750000e+03  2.144747802734375000e+03  2.142156738281250000e+03  2.141611328125000000e+03  2.141729248046875000e+03  2.139612792968750000e+03  2.131034912109375000e+03  2.107486083984375000e+03  2.092416503906250000e+03  2.099750732421875000e+03  2.127323730468750000e+03  2.151583007812500000e+03  2.155445312500000000e+03  2.146951660156250000e+03  2.136466064453125000e+03  2.131967285156250000e+03  2.128892333984375000e+03  2.126233398437500000e+03  2.123883300781250000e+03  2.121442138671875000e+03  2.120219726562500000e+03  2.121633544921875000e+03  2.131286132812500000e+03  2.143315917968750000e+03  2.152720947265625000e+03  2.159640380859375000e+03  2.166869140625000000e+03  2.163863525390625000e+03  2.146539062500000000e+03  2.140020507812500000e+03  2.135407714843750000e+03  2.129386962890625000e+03  2.118759277343750000e+03  2.107626708984375000e+03  2.103982666015625000e+03  2.102308349609375000e+03  2.102925781250000000e+03  2.107577880859375000e+03  2.115496826171875000e+03  2.123895263671875000e+03  2.125434326171875000e+03  2.113841796875000000e+03  2.096949951171875000e+03  2.084355712890625000e+03  2.075943115234375000e+03  2.067332275390625000e+03  2.061299316406250000e+03  2.056153564453125000e+03  2.051028320312500000e+03  2.048750732421875000e+03  2.053305175781250000e+03  2.062069091796875000e+03  2.057601562500000000e+03  2.038233398437500000e+03  2.022801147460937500e+03  2.012246459960937500e+03  2.003480041503906250e+03
2.332488525390625000e+03  2.326180908203125000e+03  2.307456298828125000e+03  2.284383056640625000e+03  2.259730468750000000e+03  2.238354736328125000e+03  2.237225585937500000e+03  2.247170654296875000e+03  2.254338867187500000e+03  2.239479492187500000e+03  2.222614501953125000e+03  2.206295166015625000e+03  2.192436279296875000e+03  2.176899169921875000e+03  2.162318603515625000e+03  2.157346191406250000e+03  2.156129394531250000e+03  2.155918945312500000e+03  2.156905517578125000e+03  2.158338867187500000e+03  2.160144042968750000e+03  2.169565185546875000e+03  2.184061035156250000e+03  2.183499511718750000e+03  2.175870361328125000e+03  2.162219482421875000e+03  2.150032714843750000e+03  2.145288574218750000e+03  2.147101318359375000e+03  2.149471679687500000e+03  2.149483642578125000e+03  2.146977539062500000e+03  2.134589111328125000e+03  2.104173339843750000e+03  2.098538330078125000e+03  2.107990234375000000e+03  2.125199218750000000e+03  2.147678955078125000e+03  2.161133544921875000e+03  2.152862792968750000e+03  2.141496337890625000e+03  2.133774414062500000e+03  2.130672363281250000e+03  2.127545410156250000e+03  2.124593017578125000e+03  2.121881591796875000e+03  2.120504394531250000e+03  2.121110107421875000e+03  2.130407470703125000e+03  2.144805419921875000e+03  2.155888427734375000e+03  2.165344238281250000e+03  2.172236816406250000e+03  2.161605468750000000e+03  2.139778320312500000e+03  2.132265869140625000e+03  2.128579589843750000e+03  2.123844970703125000e+03  2.115288330078125000e+03  2.110060546875000000e+03  2.108043457031250000e+03  2.105610107421875000e+03  2.106780761718750000e+03  2.109807128906250000e+03  2.117886230468750000e+03  2.126572998046875000e+03  2.133014160156250000e+03  2.127564453125000000e+03  2.112690917968750000e+03  2.097060302734375000e+03  2.085452880859375000e+03  2.074877929687500000e+03  2.066768798828125000e+03  2.059914062500000000e+03  2.054596435546875000e+03  2.052241210937500000e+03  2.054022460937500000e+03  2.060338378906250000e+03  2.057921386718750000e+03  2.046138183593750000e+03  2.029982421875000000e+03  2.017856689453125000e+03  2.003539672851562500e+03
2.345178222656250000e+03  2.341321533203125000e+03  2.321366699218750000e+03  2.297643066406250000e+03  2.272249511718750000e+03  2.251796875000000000e+03  2.247488525390625000e+03  2.258026367187500000e+03  2.264136474609375000e+03  2.251206542968750000e+03  2.236455078125000000e+03  2.221804199218750000e+03  2.207139160156250000e+03  2.194902099609375000e+03  2.178463134765625000e+03  2.164398193359375000e+03  2.158219482421875000e+03  2.158545898437500000e+03  2.162229980468750000e+03  2.169251708984375000e+03  2.178548583984375000e+03  2.189666503906250000e+03  2.192458496093750000e+03  2.187623046875000000e+03  2.168893310546875000e+03  2.152542236328125000e+03  2.145616210937500000e+03  2.144223876953125000e+03  2.146858642578125000e+03  2.149213867187500000e+03  2.152039550781250000e+03  2.149299072265625000e+03  2.129785400390625000e+03  2.106212402343750000e+03  2.101864501953125000e+03  2.111676757812500000e+03  2.127887695312500000e+03  2.144095703125000000e+03  2.163312500000000000e+03  2.161205078125000000e+03  2.150638183593750000e+03  2.137015380859375000e+03  2.132043212890625000e+03  2.128637939453125000e+03  2.124786621093750000e+03  2.121943359375000000e+03  2.120504638671875000e+03  2.121084472656250000e+03  2.132026367187500000e+03  2.148011230468750000e+03  2.158189697265625000e+03  2.167307617187500000e+03  2.169528320312500000e+03  2.156084472656250000e+03  2.130660888671875000e+03  2.122625000000000000e+03  2.122366455078125000e+03  2.119980712890625000e+03  2.114460693359375000e+03  2.112155273437500000e+03  2.111490478515625000e+03  2.110042968750000000e+03  2.109233398437500000e+03  2.112004638671875000e+03  2.119721923828125000e+03  2.127846679687500000e+03  2.133939697265625000e+03  2.129986083984375000e+03  2.117606445312500000e+03  2.102401855468750000e+03  2.090460937500000000e+03  2.080933105468750000e+03  2.071696044921875000e+03  2.062715087890625000e+03  2.054999023437500000e+03  2.050791015625000000e+03  2.052196777343750000e+03  2.056792480468750000e+03  2.061342773437500000e+03  2.062320556640625000e+03  2.043189331054687500e+03  2.023796508789062500e+03  1.997960571289062500e+03
2.348932128906250000e+03  2.343521972656250000e+03  2.328167480468750000e+03  2.307359619140625000e+03  2.285650390625000000e+03  2.266713867187500000e+03  2.256704101562500000e+03  2.266295654296875000e+03  2.278055175781250000e+03  2.263832031250000000e+03  2.248185058593750000e+03  2.233443115234375000e+03  2.220129394531250000e+03  2.206344238281250000e+03  2.193620605468750000e+03  2.179226074218750000e+03  2.167528564453125000e+03  2.167645263671875000e+03  2.174538574218750000e+03  2.184813720703125000e+03  2.196000488281250000e+03  2.197835449218750000e+03  2.196668701171875000e+03  2.177722656250000000e+03  2.160087646484375000e+03  2.145672363281250000e+03  2.143691894531250000e+03  2.142989990234375000e+03  2.145226562500000000e+03  2.147513427734375000e+03  2.148246093750000000e+03  2.141386962890625000e+03  2.120510986328125000e+03  2.109721679687500000e+03  2.104736328125000000e+03  2.114023925781250000e+03  2.129510742187500000e+03  2.145727539062500000e+03  2.163076171875000000e+03  2.168512695312500000e+03  2.156027343750000000e+03  2.142238525390625000e+03  2.133430664062500000e+03  2.130267089843750000e+03  2.126630126953125000e+03  2.123235107421875000e+03  2.120924560546875000e+03  2.122628662109375000e+03  2.134155517578125000e+03  2.148544189453125000e+03  2.156960449218750000e+03  2.163007080078125000e+03  2.162439453125000000e+03  2.147842041015625000e+03  2.122524902343750000e+03  2.121113281250000000e+03  2.120026855468750000e+03  2.117846679687500000e+03  2.114267089843750000e+03  2.113040283203125000e+03  2.114180908203125000e+03  2.114237792968750000e+03  2.112206298828125000e+03  2.113506591796875000e+03  2.120974609375000000e+03  2.128211914062500000e+03  2.131048828125000000e+03  2.123831787109375000e+03  2.113729492187500000e+03  2.102190429687500000e+03  2.092331542968750000e+03  2.084324707031250000e+03  2.073668457031250000e+03  2.062635742187500000e+03  2.050968994140625000e+03  2.047366455078125000e+03  2.046868286132812500e+03  2.052447021484375000e+03  2.060067871093750000e+03  2.056755126953125000e+03  2.040395996093750000e+03  2.013127807617187500e+03  1.993242187500000000e+03
2.351761230468750000e+03  2.345717285156250000e+03  2.331223144531250000e+03  2.313457763671875000e+03  2.296929931640625000e+03  2.286777832031250000e+03  2.272655761718750000e+03  2.272121582031250000e+03  2.283999023437500000e+03  2.277153808593750000e+03  2.258701171875000000e+03  2.242632568359375000e+03  2.228177978515625000e+03  2.214837402343750000e+03  2.203273437500000000e+03  2.192210449218750000e+03  2.177805908203125000e+03  2.175711914062500000e+03  2.180796386718750000e+03  2.188143310546875000e+03  2.191630126953125000e+03  2.192396240234375000e+03  2.181037597656250000e+03  2.163663330078125000e+03  2.146822998046875000e+03  2.143913818359375000e+03  2.141559814453125000e+03  2.141763671875000000e+03  2.142594970703125000e+03  2.142998046875000000e+03  2.137986328125000000e+03  2.128166748046875000e+03  2.118259033203125000e+03  2.109831054687500000e+03  2.110172363281250000e+03  2.118965820312500000e+03  2.126921142578125000e+03  2.142104736328125000e+03  2.157989501953125000e+03  2.170834960937500000e+03  2.160043945312500000e+03  2.147463623046875000e+03  2.135046142578125000e+03  2.132510986328125000e+03  2.129811279296875000e+03  2.125427001953125000e+03  2.123541503906250000e+03  2.126442382812500000e+03  2.135961669921875000e+03  2.144858154296875000e+03  2.152801025390625000e+03  2.158141845703125000e+03  2.155822998046875000e+03  2.139719970703125000e+03  2.121255615234375000e+03  2.119718017578125000e+03  2.118594482421875000e+03  2.116777832031250000e+03  2.115343505859375000e+03  2.115576660156250000e+03  2.119899658203125000e+03  2.120825195312500000e+03  2.117736083984375000e+03  2.116568603515625000e+03  2.121329833984375000e+03  2.127395019531250000e+03  2.128252441406250000e+03  2.121087646484375000e+03  2.111798339843750000e+03  2.099863281250000000e+03  2.093816162109375000e+03  2.088567138671875000e+03  2.077707031250000000e+03  2.065089355468750000e+03  2.051066894531250000e+03  2.045413208007812500e+03  2.042387695312500000e+03  2.042729858398437500e+03  2.042992431640625000e+03  2.033610961914062500e+03  2.017573974609375000e+03  2.000555175781250000e+03  1.984140136718750000e+03
2.352845458984375000e+03  2.345647460937500000e+03  2.335504638671875000e+03  2.319838378906250000e+03  2.311074951171875000e+03  2.305821533203125000e+03  2.291030273437500000e+03  2.280669433593750000e+03  2.285468750000000000e+03  2.282390869140625000e+03  2.268059326171875000e+03  2.249205078125000000e+03  2.233735595703125000e+03  2.222704833984375000e+03  2.214644287109375000e+03  2.202282226562500000e+03  2.184913085937500000e+03  2.182186767578125000e+03  2.182920898437500000e+03  2.183993652343750000e+03  2.182448486328125000e+03  2.176739990234375000e+03  2.164764160156250000e+03  2.145273193359375000e+03  2.138760253906250000e+03  2.137012695312500000e+03  2.139369628906250000e+03  2.139041503906250000e+03  2.138114990234375000e+03  2.137228515625000000e+03  2.132466064453125000e+03  2.123102294921875000e+03  2.115745361328125000e+03  2.111734375000000000e+03  2.116536376953125000e+03  2.123829833984375000e+03  2.129520507812500000e+03  2.138666259765625000e+03  2.153910644531250000e+03  2.170442871093750000e+03  2.163135253906250000e+03  2.154062744140625000e+03  2.143578857421875000e+03  2.136777099609375000e+03  2.133031982421875000e+03  2.129081298828125000e+03  2.127046630859375000e+03  2.129719482421875000e+03  2.135323730468750000e+03  2.142781738281250000e+03  2.149500244140625000e+03  2.153554443359375000e+03  2.151609619140625000e+03  2.130338623046875000e+03  2.120272460937500000e+03  2.119001708984375000e+03  2.117624267578125000e+03  2.116096679687500000e+03  2.116254394531250000e+03  2.119928222656250000e+03  2.123510009765625000e+03  2.124622070312500000e+03  2.122922363281250000e+03  2.119823974609375000e+03  2.122164062500000000e+03  2.126445068359375000e+03  2.126610107421875000e+03  2.120254150390625000e+03  2.110722656250000000e+03  2.100490478515625000e+03  2.097188964843750000e+03  2.090239013671875000e+03  2.079678466796875000e+03  2.067603515625000000e+03  2.058168701171875000e+03  2.050216064453125000e+03  2.041486572265625000e+03  2.035306274414062500e+03  2.028047363281250000e+03  2.016170898437500000e+03  2.002159301757812500e+03  1.988557861328125000e+03  1.978763671875000000e+03
2.351583984375000000e+03  2.340997314453125000e+03  2.334593261718750000e+03  2.326968261718750000e+03  2.322417968750000000e+03  2.317990722656250000e+03  2.302504882812500000e+03  2.290873046875000000e+03  2.288135986328125000e+03  2.284095214843750000e+03  2.273962158203125000e+03  2.255519042968750000e+03  2.237457763671875000e+03  2.233008544921875000e+03  2.227714111328125000e+03  2.215199707031250000e+03  2.199417724609375000e+03  2.191267089843750000e+03  2.186392333984375000e+03  2.177087890625000000e+03  2.169452392578125000e+03  2.161864501953125000e+03  2.145378173828125000e+03  2.136931396484375000e+03  2.132227294921875000e+03  2.136114501953125000e+03  2.137262207031250000e+03  2.136865966796875000e+03  2.135036865234375000e+03  2.132648437500000000e+03  2.123021972656250000e+03  2.118092773437500000e+03  2.113324462890625000e+03  2.113954833984375000e+03  2.120315673828125000e+03  2.125780029296875000e+03  2.132678222656250000e+03  2.142389892578125000e+03  2.154000976562500000e+03  2.170578857421875000e+03  2.167677978515625000e+03  2.162029052734375000e+03  2.151836425781250000e+03  2.142436279296875000e+03  2.136183593750000000e+03  2.133502441406250000e+03  2.130067138671875000e+03  2.132578613281250000e+03  2.136576904296875000e+03  2.142700439453125000e+03  2.148455078125000000e+03  2.152177490234375000e+03  2.149443847656250000e+03  2.132926269531250000e+03  2.121971191406250000e+03  2.119739746093750000e+03  2.116088623046875000e+03  2.114500244140625000e+03  2.116147705078125000e+03  2.120170410156250000e+03  2.123261474609375000e+03  2.125780517578125000e+03  2.123597656250000000e+03  2.120791015625000000e+03  2.122118408203125000e+03  2.123777832031250000e+03  2.126356201171875000e+03  2.123149169921875000e+03  2.114452880859375000e+03  2.108348632812500000e+03  2.102139404296875000e+03  2.089774414062500000e+03  2.073895507812500000e+03  2.069233642578125000e+03  2.065111328125000000e+03  2.064163085937500000e+03  2.053914062500000000e+03  2.036746093750000000e+03  2.029967651367187500e+03  2.019692016601562500e+03  2.004955688476562500e+03  1.994164184570312500e+03  1.988994689941406250e+03
2.348823974609375000e+03  2.341111083984375000e+03  2.335552001953125000e+03  2.331003662109375000e+03  2.329820068359375000e+03  2.320069335937500000e+03  2.307074951171875000e+03  2.293916992187500000e+03  2.289422607421875000e+03  2.285383056640625000e+03  2.277004150390625000e+03  2.262123046875000000e+03  2.244343994140625000e+03  2.240553222656250000e+03  2.240383544921875000e+03  2.235163330078125000e+03  2.215990722656250000e+03  2.201689208984375000e+03  2.195350097656250000e+03  2.173073242187500000e+03  2.160240234375000000e+03  2.149687500000000000e+03  2.138518066406250000e+03  2.131415771484375000e+03  2.127388183593750000e+03  2.129758056640625000e+03  2.132990234375000000e+03  2.133536376953125000e+03  2.130343505859375000e+03  2.125622558593750000e+03  2.119848632812500000e+03  2.115319824218750000e+03  2.113677978515625000e+03  2.119081054687500000e+03  2.123767822265625000e+03  2.129163085937500000e+03  2.135640625000000000e+03  2.144622558593750000e+03  2.158125976562500000e+03  2.171322753906250000e+03  2.169661376953125000e+03  2.165143066406250000e+03  2.158223144531250000e+03  2.145910644531250000e+03  2.142652099609375000e+03  2.140113769531250000e+03  2.133593994140625000e+03  2.135270019531250000e+03  2.140181884765625000e+03  2.146000976562500000e+03  2.150997314453125000e+03  2.155597167968750000e+03  2.151802978515625000e+03  2.140948730468750000e+03  2.131669677734375000e+03  2.120571533203125000e+03  2.112875976562500000e+03  2.111830566406250000e+03  2.114593017578125000e+03  2.119086181640625000e+03  2.123211425781250000e+03  2.126459472656250000e+03  2.124031982421875000e+03  2.121184326171875000e+03  2.118830810546875000e+03  2.121885986328125000e+03  2.122871093750000000e+03  2.121489013671875000e+03  2.118244384765625000e+03  2.114590332031250000e+03  2.109767578125000000e+03  2.098527832031250000e+03  2.079398193359375000e+03  2.072732910156250000e+03  2.072735107421875000e+03  2.072609619140625000e+03  2.064884521484375000e+03  2.056920166015625000e+03  2.046300292968750000e+03  2.031626586914062500e+03  2.013184082031250000e+03  1.998749755859375000e+03  1.993203369140625000e+03
2.347654052734375000e+03  2.340964599609375000e+03  2.337380859375000000e+03  2.334520019531250000e+03  2.336350585937500000e+03  2.325611572265625000e+03  2.311274658203125000e+03  2.297849609375000000e+03  2.290835693359375000e+03  2.285446289062500000e+03  2.277224853515625000e+03  2.261552734375000000e+03  2.251088134765625000e+03  2.246713134765625000e+03  2.246602050781250000e+03  2.240598388671875000e+03  2.226638427734375000e+03  2.208654541015625000e+03  2.194249267578125000e+03  2.173235351562500000e+03  2.156427734375000000e+03  2.145322021484375000e+03  2.134980468750000000e+03  2.128689453125000000e+03  2.124171875000000000e+03  2.122178466796875000e+03  2.122028564453125000e+03  2.124543701171875000e+03  2.125648437500000000e+03  2.122377441406250000e+03  2.118090820312500000e+03  2.114216796875000000e+03  2.118265136718750000e+03  2.123675781250000000e+03  2.127291259765625000e+03  2.131981933593750000e+03  2.137555664062500000e+03  2.147851318359375000e+03  2.162190185546875000e+03  2.171549072265625000e+03  2.171194580078125000e+03  2.167341552734375000e+03  2.162239990234375000e+03  2.153736328125000000e+03  2.150418701171875000e+03  2.149143310546875000e+03  2.139817626953125000e+03  2.138774169921875000e+03  2.144330078125000000e+03  2.150393066406250000e+03  2.155637207031250000e+03  2.160282470703125000e+03  2.157452636718750000e+03  2.144883544921875000e+03  2.136529541015625000e+03  2.120835449218750000e+03  2.110096923828125000e+03  2.109085693359375000e+03  2.111303710937500000e+03  2.116873046875000000e+03  2.122981445312500000e+03  2.126837402343750000e+03  2.125941162109375000e+03  2.122488525390625000e+03  2.117142578125000000e+03  2.114021484375000000e+03  2.115656005859375000e+03  2.116687988281250000e+03  2.118159667968750000e+03  2.118373046875000000e+03  2.121234619140625000e+03  2.114005615234375000e+03  2.098251464843750000e+03  2.088697998046875000e+03  2.086297119140625000e+03  2.082660400390625000e+03  2.077170166015625000e+03  2.072482421875000000e+03  2.057457763671875000e+03  2.035895019531250000e+03  2.014977172851562500e+03  2.003669433593750000e+03  1.996495422363281250e+03
2.348123779296875000e+03  2.341965087890625000e+03  2.338824951171875000e+03  2.335955078125000000e+03  2.342290283203125000e+03  2.330609619140625000e+03  2.314885498046875000e+03  2.301435302734375000e+03  2.293011474609375000e+03  2.286213623046875000e+03  2.279190185546875000e+03  2.267337158203125000e+03  2.258780273437500000e+03  2.254168945312500000e+03  2.248974609375000000e+03  2.240782470703125000e+03  2.228976074218750000e+03  2.212014892578125000e+03  2.195174072265625000e+03  2.174566406250000000e+03  2.159268310546875000e+03  2.147635742187500000e+03  2.134150146484375000e+03  2.124900146484375000e+03  2.122050292968750000e+03  2.121123046875000000e+03  2.120564941406250000e+03  2.120012207031250000e+03  2.120951171875000000e+03  2.119365966796875000e+03  2.115988037109375000e+03  2.115170410156250000e+03  2.119864746093750000e+03  2.125837158203125000e+03  2.131987792968750000e+03  2.135182861328125000e+03  2.139808105468750000e+03  2.152434326171875000e+03  2.170936767578125000e+03  2.179930664062500000e+03  2.176919189453125000e+03  2.171122802734375000e+03  2.167207763671875000e+03  2.159753662109375000e+03  2.157500488281250000e+03  2.152443359375000000e+03  2.144858398437500000e+03  2.144358398437500000e+03  2.147307128906250000e+03  2.151583740234375000e+03  2.155799804687500000e+03  2.159540283203125000e+03  2.151438720703125000e+03  2.142450683593750000e+03  2.132816162109375000e+03  2.119968505859375000e+03  2.110461669921875000e+03  2.106757324218750000e+03  2.108450439453125000e+03  2.110680664062500000e+03  2.119639160156250000e+03  2.124279296875000000e+03  2.124825195312500000e+03  2.122030761718750000e+03  2.116824462890625000e+03  2.110975341796875000e+03  2.108081054687500000e+03  2.110869873046875000e+03  2.116364257812500000e+03  2.121152099609375000e+03  2.126515380859375000e+03  2.126317138671875000e+03  2.120335937500000000e+03  2.117181396484375000e+03  2.119217041015625000e+03  2.100321533203125000e+03  2.074598876953125000e+03  2.062528076171875000e+03  2.049757812500000000e+03  2.030738891601562500e+03  2.014665161132812500e+03  2.004508544921875000e+03  1.995300170898437500e+03
2.348853515625000000e+03  2.342585449218750000e+03  2.339432373046875000e+03  2.335714599609375000e+03  2.333991455078125000e+03  2.327628906250000000e+03  2.314451660156250000e+03  2.304145996093750000e+03  2.294625244140625000e+03  2.289601074218750000e+03  2.282977050781250000e+03  2.270408935546875000e+03  2.266918945312500000e+03  2.259887939453125000e+03  2.252693603515625000e+03  2.244564941406250000e+03  2.230918457031250000e+03  2.212146240234375000e+03  2.195143310546875000e+03  2.178084472656250000e+03  2.162199218750000000e+03  2.146004638671875000e+03  2.130823242187500000e+03  2.122392578125000000e+03  2.121571289062500000e+03  2.120896240234375000e+03  2.120051025390625000e+03  2.119501220703125000e+03  2.118547363281250000e+03  2.117343505859375000e+03  2.115787353515625000e+03  2.116482910156250000e+03  2.120626220703125000e+03  2.126031250000000000e+03  2.133472167968750000e+03  2.138565429687500000e+03  2.144879882812500000e+03  2.154381591796875000e+03  2.175252929687500000e+03  2.185522216796875000e+03  2.184249755859375000e+03  2.181355712890625000e+03  2.174754882812500000e+03  2.171148925781250000e+03  2.165465576171875000e+03  2.156952880859375000e+03  2.149477050781250000e+03  2.149447509765625000e+03  2.151148681640625000e+03  2.151494384765625000e+03  2.151043945312500000e+03  2.151686523437500000e+03  2.145966796875000000e+03  2.139774414062500000e+03  2.129197998046875000e+03  2.117990478515625000e+03  2.110279541015625000e+03  2.106126464843750000e+03  2.106564208984375000e+03  2.108123779296875000e+03  2.113784179687500000e+03  2.118248535156250000e+03  2.119375000000000000e+03  2.118438964843750000e+03  2.115162597656250000e+03  2.111034667968750000e+03  2.099948974609375000e+03  2.106319335937500000e+03  2.114919189453125000e+03  2.122473144531250000e+03  2.127569824218750000e+03  2.130488525390625000e+03  2.130037353515625000e+03  2.127684326171875000e+03  2.120480224609375000e+03  2.097791015625000000e+03  2.070232666015625000e+03  2.056425781250000000e+03  2.043160888671875000e+03  2.029829345703125000e+03  2.015853149414062500e+03  2.003914550781250000e+03  1.994349792480468750e+03
2.348032958984375000e+03  2.341268554687500000e+03  2.338408447265625000e+03  2.335136230468750000e+03  2.330273925781250000e+03  2.324636718750000000e+03  2.319297851562500000e+03  2.314416748046875000e+03  2.302800537109375000e+03  2.295555419921875000e+03  2.291220458984375000e+03  2.281132080078125000e+03  2.273565185546875000e+03  2.266557861328125000e+03  2.259646484375000000e+03  2.251453857421875000e+03  2.231303710937500000e+03  2.215562988281250000e+03  2.198500976562500000e+03  2.176092773437500000e+03  2.156824951171875000e+03  2.139565917968750000e+03  2.127864990234375000e+03  2.123205566406250000e+03  2.122820312500000000e+03  2.123106689453125000e+03  2.122150390625000000e+03  2.121154785156250000e+03  2.118921142578125000e+03  2.116916992187500000e+03  2.116467041015625000e+03  2.117153320312500000e+03  2.120583496093750000e+03  2.127438232421875000e+03  2.135398193359375000e+03  2.142476806640625000e+03  2.148391357421875000e+03  2.159890380859375000e+03  2.174286621093750000e+03  2.184524902343750000e+03  2.185281494140625000e+03  2.185954589843750000e+03  2.183613769531250000e+03  2.182501708984375000e+03  2.172432861328125000e+03  2.161710449218750000e+03  2.158327636718750000e+03  2.156834228515625000e+03  2.152881347656250000e+03  2.151045898437500000e+03  2.148323974609375000e+03  2.145410400390625000e+03  2.142156494140625000e+03  2.138661132812500000e+03  2.132857910156250000e+03  2.119185791015625000e+03  2.111500976562500000e+03  2.107070800781250000e+03  2.105240722656250000e+03  2.104638916015625000e+03  2.107701660156250000e+03  2.110989013671875000e+03  2.111322509765625000e+03  2.112430419921875000e+03  2.111048095703125000e+03  2.105685058593750000e+03  2.097642333984375000e+03  2.101850585937500000e+03  2.111777099609375000e+03  2.119177490234375000e+03  2.125128173828125000e+03  2.129953857421875000e+03  2.130651611328125000e+03  2.128369873046875000e+03  2.123499023437500000e+03  2.103278076171875000e+03  2.075178955078125000e+03  2.058180175781250000e+03  2.046087402343750000e+03  2.037012329101562500e+03  2.023688354492187500e+03  2.008518920898437500e+03  2.000141723632812500e+03
2.349540283203125000e+03  2.341385986328125000e+03  2.339784179687500000e+03  2.338056152343750000e+03  2.334520263671875000e+03  2.331357910156250000e+03  2.329874755859375000e+03  2.324212402343750000e+03  2.317550537109375000e+03  2.310261718750000000e+03  2.306267578125000000e+03  2.294945312500000000e+03  2.283364990234375000e+03  2.279590087890625000e+03  2.270544921875000000e+03  2.250773437500000000e+03  2.232845458984375000e+03  2.217714111328125000e+03  2.193406005859375000e+03  2.165283203125000000e+03  2.145575195312500000e+03  2.132885742187500000e+03  2.122822509765625000e+03  2.120461669921875000e+03  2.121308593750000000e+03  2.122114501953125000e+03  2.123143554687500000e+03  2.123192382812500000e+03  2.119248046875000000e+03  2.117454589843750000e+03  2.117322021484375000e+03  2.117903320312500000e+03  2.121016601562500000e+03  2.128971435546875000e+03  2.139587158203125000e+03  2.148806396484375000e+03  2.156576660156250000e+03  2.170159179687500000e+03  2.185537353515625000e+03  2.188020019531250000e+03  2.184623535156250000e+03  2.186026123046875000e+03  2.186975585937500000e+03  2.180349121093750000e+03  2.170877441406250000e+03  2.167330566406250000e+03  2.163812500000000000e+03  2.160965332031250000e+03  2.156600097656250000e+03  2.151345947265625000e+03  2.146429199218750000e+03  2.142128662109375000e+03  2.137439453125000000e+03  2.135634765625000000e+03  2.133389648437500000e+03  2.122432373046875000e+03  2.112954345703125000e+03  2.108530517578125000e+03  2.103920166015625000e+03  2.100954833984375000e+03  2.101193847656250000e+03  2.103355957031250000e+03  2.105075439453125000e+03  2.106615234375000000e+03  2.105553466796875000e+03  2.100760253906250000e+03  2.093942626953125000e+03  2.094922119140625000e+03  2.103581054687500000e+03  2.113001464843750000e+03  2.123691650390625000e+03  2.127641357421875000e+03  2.127519042968750000e+03  2.124516845703125000e+03  2.122470214843750000e+03  2.112593994140625000e+03  2.091903564453125000e+03  2.066776611328125000e+03  2.054701416015625000e+03  2.047306884765625000e+03  2.029731811523437500e+03  2.016285278320312500e+03  2.008634521484375000e+03
2.360366699218750000e+03  2.347279296875000000e+03  2.341575439453125000e+03  2.341730712890625000e+03  2.341780517578125000e+03  2.339151123046875000e+03  2.337733642578125000e+03  2.332672607421875000e+03  2.327375488281250000e+03  2.323784912109375000e+03  2.320254882812500000e+03  2.305903320312500000e+03  2.291205322265625000e+03  2.268521484375000000e+03  2.248146484375000000e+03  2.237107177734375000e+03  2.224347900390625000e+03  2.204673095703125000e+03  2.178566406250000000e+03  2.148088378906250000e+03  2.134238525390625000e+03  2.125029785156250000e+03  2.119114746093750000e+03  2.117803955078125000e+03  2.117803955078125000e+03  2.117803955078125000e+03  2.119953125000000000e+03  2.118679931640625000e+03  2.118313964843750000e+03  2.117803955078125000e+03  2.117953857421875000e+03  2.118670410156250000e+03  2.121765136718750000e+03  2.133790283203125000e+03  2.149268554687500000e+03  2.162722900390625000e+03  2.174983642578125000e+03  2.185422607421875000e+03  2.190318603515625000e+03  2.187984375000000000e+03  2.184177978515625000e+03  2.182514160156250000e+03  2.180624511718750000e+03  2.170403076171875000e+03  2.165274414062500000e+03  2.164801269531250000e+03  2.163826904296875000e+03  2.161320800781250000e+03  2.156923095703125000e+03  2.149860839843750000e+03  2.144149658203125000e+03  2.138840332031250000e+03  2.133935302734375000e+03  2.131196533203125000e+03  2.127638427734375000e+03  2.122357666015625000e+03  2.114882324218750000e+03  2.108858642578125000e+03  2.102869384765625000e+03  2.098450683593750000e+03  2.096333007812500000e+03  2.096830810546875000e+03  2.097745849609375000e+03  2.101383789062500000e+03  2.100411865234375000e+03  2.095417480468750000e+03  2.087073974609375000e+03  2.087728759765625000e+03  2.095252685546875000e+03  2.108017578125000000e+03  2.121113769531250000e+03  2.123354003906250000e+03  2.123250488281250000e+03  2.121100097656250000e+03  2.116619384765625000e+03  2.108609375000000000e+03  2.099739746093750000e+03  2.080309082031250000e+03  2.060612060546875000e+03  2.048755615234375000e+03  2.039064453125000000e+03  2.033735717773437500e+03  2.024874755859375000e+03
2.378387695312500000e+03  2.358337646484375000e+03  2.350060546875000000e+03  2.347251464843750000e+03  2.346035400390625000e+03  2.344649902343750000e+03  2.342949218750000000e+03  2.339608154296875000e+03  2.332360107421875000e+03  2.319694580078125000e+03  2.300297119140625000e+03  2.273274902343750000e+03  2.250870361328125000e+03  2.229573242187500000e+03  2.217592285156250000e+03  2.212298095703125000e+03  2.200262939453125000e+03  2.180321533203125000e+03  2.157988525390625000e+03  2.132518310546875000e+03  2.119940673828125000e+03  2.117930664062500000e+03  2.117803955078125000e+03  2.117803955078125000e+03  2.117803955078125000e+03  2.117803955078125000e+03  2.117803955078125000e+03  2.117803955078125000e+03  2.117803955078125000e+03  2.117803955078125000e+03  2.118505126953125000e+03  2.118685302734375000e+03  2.124878906250000000e+03  2.145347167968750000e+03  2.159435302734375000e+03  2.175165771484375000e+03  2.185928466796875000e+03  2.194940185546875000e+03  2.194108154296875000e+03  2.188729248046875000e+03  2.178295654296875000e+03  2.171317871093750000e+03  2.164722412109375000e+03  2.157111083984375000e+03  2.154958740234375000e+03  2.156367675781250000e+03  2.159481933593750000e+03  2.159229492187500000e+03  2.154403320312500000e+03  2.147773437500000000e+03  2.142554199218750000e+03  2.136614257812500000e+03  2.131604003906250000e+03  2.127657714843750000e+03  2.123973632812500000e+03  2.119710693359375000e+03  2.115468017578125000e+03  2.110585449218750000e+03  2.104531982421875000e+03  2.098423828125000000e+03  2.092731445312500000e+03  2.091844238281250000e+03  2.093895996093750000e+03  2.096760498046875000e+03  2.095752929687500000e+03  2.088126953125000000e+03  2.081182617187500000e+03  2.079523925781250000e+03  2.085254150390625000e+03  2.097141357421875000e+03  2.111701416015625000e+03  2.115227539062500000e+03  2.117327392578125000e+03  2.118070556640625000e+03  2.114274414062500000e+03  2.109649169921875000e+03  2.103693359375000000e+03  2.086950927734375000e+03  2.066262939453125000e+03  2.053049316406250000e+03  2.043799072265625000e+03  2.037776123046875000e+03  2.027331359863281250e+03
2.388465820312500000e+03  2.368932861328125000e+03  2.352820556640625000e+03  2.344838623046875000e+03  2.341588378906250000e+03  2.327467773437500000e+03  2.323063232421875000e+03  2.316454345703125000e+03  2.305454345703125000e+03  2.285042724609375000e+03  2.258161376953125000e+03  2.228166992187500000e+03  2.204359863281250000e+03  2.188109130859375000e+03  2.181108154296875000e+03  2.177817871093750000e+03  2.166663330078125000e+03  2.147537109375000000e+03  2.129362304687500000e+03  2.117812255859375000e+03  2.117803955078125000e+03  2.117803955078125000e+03  2.117803955078125000e+03  2.117803955078125000e+03  2.117803955078125000e+03  2.117803955078125000e+03  2.117803955078125000e+03  2.117803955078125000e+03  2.117803955078125000e+03  2.117803955078125000e+03  2.117803955078125000e+03  2.118737548828125000e+03  2.132530029296875000e+03  2.153151367187500000e+03  2.169687255859375000e+03  2.190286132812500000e+03  2.198837890625000000e+03  2.196822998046875000e+03  2.196604736328125000e+03  2.185612060546875000e+03  2.177642333984375000e+03  2.169803222656250000e+03  2.154965576171875000e+03  2.147140869140625000e+03  2.142015380859375000e+03  2.142548828125000000e+03  2.147675292968750000e+03  2.150616210937500000e+03  2.149449462890625000e+03  2.144987792968750000e+03  2.139646484375000000e+03  2.134496582031250000e+03  2.128668212890625000e+03  2.124164062500000000e+03  2.119901123046875000e+03  2.115723876953125000e+03  2.112861816406250000e+03  2.109861816406250000e+03  2.105816406250000000e+03  2.100712402343750000e+03  2.092192138671875000e+03  2.086851562500000000e+03  2.089882568359375000e+03  2.091903564453125000e+03  2.090500244140625000e+03  2.087313232421875000e+03  2.078436767578125000e+03  2.073186523437500000e+03  2.077677734375000000e+03  2.084501953125000000e+03  2.095802490234375000e+03  2.103653564453125000e+03  2.109771240234375000e+03  2.113579589843750000e+03  2.114020996093750000e+03  2.113288574218750000e+03  2.108615722656250000e+03  2.097030029296875000e+03  2.073884277343750000e+03  2.055135742187500000e+03  2.042704101562500000e+03  2.033464477539062500e+03  2.026043640136718750e+03
2.361234863281250000e+03  2.342120605468750000e+03  2.322405273437500000e+03  2.305657714843750000e+03  2.297481445312500000e+03  2.285636962890625000e+03  2.273278564453125000e+03  2.260921142578125000e+03  2.253511962890625000e+03  2.229380126953125000e+03  2.208108398437500000e+03  2.183269775390625000e+03  2.161306152343750000e+03  2.151636474609375000e+03  2.145807373046875000e+03  2.133471435546875000e+03  2.125965576171875000e+03  2.117803955078125000e+03  2.117803955078125000e+03  2.117803955078125000e+03  2.117803955078125000e+03  2.117803955078125000e+03  2.117803955078125000e+03  2.117803955078125000e+03  2.117803955078125000e+03  2.117803955078125000e+03  2.117803955078125000e+03  2.117803955078125000e+03  2.117803955078125000e+03  2.117803955078125000e+03  2.117803955078125000e+03  2.123972167968750000e+03  2.146950927734375000e+03  2.169489257812500000e+03  2.191126464843750000e+03  2.205175292968750000e+03  2.206285400390625000e+03  2.206257568359375000e+03  2.194405273437500000e+03  2.184138183593750000e+03  2.174613769531250000e+03  2.162980957031250000e+03  2.156044189453125000e+03  2.150805419921875000e+03  2.146232177734375000e+03  2.132840576171875000e+03  2.133901367187500000e+03  2.135529296875000000e+03  2.136516845703125000e+03  2.137655029296875000e+03  2.135847656250000000e+03  2.130824218750000000e+03  2.124924804687500000e+03  2.119994384765625000e+03  2.115024169921875000e+03  2.110917236328125000e+03  2.108845703125000000e+03  2.107401855468750000e+03  2.104743896484375000e+03  2.101782470703125000e+03  2.097267089843750000e+03  2.084141601562500000e+03  2.086454589843750000e+03  2.089397216796875000e+03  2.088161621093750000e+03  2.086115234375000000e+03  2.076907958984375000e+03  2.069634277343750000e+03  2.069135498046875000e+03  2.072722167968750000e+03  2.081072998046875000e+03  2.090816406250000000e+03  2.102039794921875000e+03  2.108693359375000000e+03  2.109802001953125000e+03  2.109635986328125000e+03  2.104858154296875000e+03  2.096802490234375000e+03  2.078324218750000000e+03  2.055922607421875000e+03  2.042710083007812500e+03  2.032281005859375000e+03  2.022241455078125000e+03
2.317975830078125000e+03  2.295950195312500000e+03  2.279412841796875000e+03  2.261958740234375000e+03  2.249765136718750000e+03  2.236868652343750000e+03  2.220454833984375000e+03  2.205139648437500000e+03  2.193696777343750000e+03  2.174823486328125000e+03  2.156803466796875000e+03  2.139853515625000000e+03  2.125263671875000000e+03  2.118344238281250000e+03  2.117803955078125000e+03  2.117803955078125000e+03  2.117803955078125000e+03  2.117803955078125000e+03  2.117803955078125000e+03  2.117803955078125000e+03  2.117803955078125000e+03  2.117803955078125000e+03  2.117803955078125000e+03  2.117803955078125000e+03  2.117803955078125000e+03  2.117803955078125000e+03  2.117803955078125000e+03  2.117803955078125000e+03  2.117803955078125000e+03  2.117803955078125000e+03  2.122790283203125000e+03  2.148017089843750000e+03  2.175307617187500000e+03  2.196149169921875000e+03  2.208615966796875000e+03  2.209882324218750000e+03  2.208670166015625000e+03  2.201259033203125000e+03  2.184522705078125000e+03  2.178303955078125000e+03  2.170530273437500000e+03  2.158326660156250000e+03  2.155144287109375000e+03  2.151751953125000000e+03  2.148463378906250000e+03  2.134683349609375000e+03  2.124955078125000000e+03  2.119135742187500000e+03  2.121009521484375000e+03  2.127741455078125000e+03  2.128040527343750000e+03  2.123853271484375000e+03  2.118845458984375000e+03  2.112728759765625000e+03  2.109147949218750000e+03  2.107714355468750000e+03  2.106090087890625000e+03  2.104727783203125000e+03  2.102844970703125000e+03  2.100311035156250000e+03  2.095754882812500000e+03  2.084318603515625000e+03  2.081407958984375000e+03  2.086847900390625000e+03  2.084645751953125000e+03  2.076386962890625000e+03  2.067135742187500000e+03  2.064044921875000000e+03  2.061259521484375000e+03  2.062925048828125000e+03  2.068099365234375000e+03  2.077601318359375000e+03  2.092831054687500000e+03  2.100532470703125000e+03  2.103199462890625000e+03  2.101797119140625000e+03  2.096584716796875000e+03  2.089912109375000000e+03  2.077405517578125000e+03  2.054531982421875000e+03  2.040055786132812500e+03  2.030683837890625000e+03  2.023349609375000000e+03
2.273654785156250000e+03  2.248917480468750000e+03  2.231868164062500000e+03  2.214846191406250000e+03  2.198962890625000000e+03  2.189080078125000000e+03  2.173860839843750000e+03  2.154304443359375000e+03  2.143124023437500000e+03  2.128970703125000000e+03  2.117890625000000000e+03  2.117803955078125000e+03  2.117803955078125000e+03  2.117803955078125000e+03  2.117803955078125000e+03  2.117803955078125000e+03  2.117803955078125000e+03  2.117803955078125000e+03  2.117803955078125000e+03  2.117803955078125000e+03  2.117803955078125000e+03  2.117803955078125000e+03  2.117803955078125000e+03  2.117803955078125000e+03  2.117803955078125000e+03  2.117803955078125000e+03  2.117803955078125000e+03  2.117803955078125000e+03  2.117803955078125000e+03  2.131152343750000000e+03  2.154498779296875000e+03  2.184748535156250000e+03  2.203082275390625000e+03  2.216121093750000000e+03  2.219165527343750000e+03  2.212373535156250000e+03  2.206481689453125000e+03  2.194428955078125000e+03  2.181386962890625000e+03  2.174121337890625000e+03  2.167206298828125000e+03  2.158572509765625000e+03  2.155510253906250000e+03  2.150667968750000000e+03  2.145513427734375000e+03  2.134652587890625000e+03  2.127105712890625000e+03  2.116762939453125000e+03  2.103518554687500000e+03  2.113234863281250000e+03  2.118004882812500000e+03  2.115710205078125000e+03  2.110983398437500000e+03  2.107011962890625000e+03  2.103804687500000000e+03  2.102257812500000000e+03  2.101884521484375000e+03  2.102312011718750000e+03  2.101204345703125000e+03  2.099161865234375000e+03  2.092709228515625000e+03  2.084925537109375000e+03  2.074614990234375000e+03  2.075523925781250000e+03  2.073388183593750000e+03  2.066370849609375000e+03  2.059645263671875000e+03  2.059440185546875000e+03  2.057407714843750000e+03  2.057272460937500000e+03  2.057081787109375000e+03  2.066498046875000000e+03  2.079902099609375000e+03  2.090333251953125000e+03  2.096454589843750000e+03  2.096735595703125000e+03  2.091836669921875000e+03  2.083065429687500000e+03  2.074155273437500000e+03  2.052551757812500000e+03  2.037793334960937500e+03  2.030468139648437500e+03  2.024314941406250000e+03
2.230674316406250000e+03  2.208089355468750000e+03  2.191869873046875000e+03  2.176439208984375000e+03  2.161352294921875000e+03  2.149763671875000000e+03  2.132572509765625000e+03  2.118566406250000000e+03  2.117803955078125000e+03  2.117803955078125000e+03  2.117803955078125000e+03  2.117803955078125000e+03  2.117803955078125000e+03  2.117803955078125000e+03  2.117803955078125000e+03  2.117803955078125000e+03  2.117803955078125000e+03  2.117803955078125000e+03  2.117803955078125000e+03  2.117803955078125000e+03  2.117803955078125000e+03  2.117803955078125000e+03  2.117803955078125000e+03  2.117803955078125000e+03  2.117803955078125000e+03  2.117803955078125000e+03  2.117803955078125000e+03  2.119039794921875000e+03  2.133650146484375000e+03  2.159260986328125000e+03  2.188333007812500000e+03  2.207898437500000000e+03  2.219594482421875000e+03  2.227391357421875000e+03  2.219946777343750000e+03  2.211572265625000000e+03  2.211057617187500000e+03  2.197472656250000000e+03  2.187483154296875000e+03  2.183394287109375000e+03  2.174881835937500000e+03  2.165279785156250000e+03  2.157525390625000000e+03  2.151790039062500000e+03  2.147051757812500000e+03  2.138997802734375000e+03  2.132588867187500000e+03  2.116886962890625000e+03  2.092987548828125000e+03  2.098929443359375000e+03  2.106960937500000000e+03  2.107294189453125000e+03  2.103008300781250000e+03  2.101262939453125000e+03  2.098143066406250000e+03  2.096876708984375000e+03  2.097914550781250000e+03  2.100169433593750000e+03  2.099688232421875000e+03  2.096923095703125000e+03  2.088369140625000000e+03  2.080484130859375000e+03  2.070178466796875000e+03  2.063412353515625000e+03  2.061617675781250000e+03  2.059081787109375000e+03  2.055466064453125000e+03  2.056765136718750000e+03  2.056986572265625000e+03  2.056984375000000000e+03  2.056984375000000000e+03  2.059061279296875000e+03  2.070167724609375000e+03  2.084681884765625000e+03  2.097210205078125000e+03  2.100910644531250000e+03  2.091737792968750000e+03  2.081572753906250000e+03  2.071468994140625000e+03  2.052754150390625000e+03  2.037155517578125000e+03  2.031319580078125000e+03  2.026705810546875000e+03
2.195077392578125000e+03  2.177021484375000000e+03  2.159703125000000000e+03  2.147438232421875000e+03  2.132392822265625000e+03  2.119050292968750000e+03  2.117803955078125000e+03  2.117803955078125000e+03  2.117803955078125000e+03  2.117803955078125000e+03  2.117803955078125000e+03  2.117803955078125000e+03  2.117803955078125000e+03  2.117803955078125000e+03  2.117803955078125000e+03  2.117803955078125000e+03  2.117803955078125000e+03  2.117803955078125000e+03  2.117803955078125000e+03  2.117803955078125000e+03  2.117803955078125000e+03  2.117803955078125000e+03  2.117803955078125000e+03  2.117803955078125000e+03  2.117803955078125000e+03  2.117803955078125000e+03  2.121846435546875000e+03  2.138538574218750000e+03  2.158678955078125000e+03  2.184652099609375000e+03  2.196082763671875000e+03  2.210426269531250000e+03  2.229566894531250000e+03  2.223623291015625000e+03  2.221058105468750000e+03  2.229849121093750000e+03  2.227116455078125000e+03  2.209350097656250000e+03  2.197776367187500000e+03  2.185835205078125000e+03  2.177485351562500000e+03  2.170630371093750000e+03  2.158300292968750000e+03  2.149284423828125000e+03  2.143800048828125000e+03  2.137184326171875000e+03  2.130303466796875000e+03  2.111329833984375000e+03  2.085490722656250000e+03  2.087614746093750000e+03  2.094639404296875000e+03  2.097712890625000000e+03  2.094770507812500000e+03  2.094184082031250000e+03  2.091964355468750000e+03  2.092724365234375000e+03  2.094877685546875000e+03  2.098037109375000000e+03  2.096767578125000000e+03  2.090475097656250000e+03  2.083455810546875000e+03  2.076475585937500000e+03  2.068768066406250000e+03  2.060335449218750000e+03  2.054899169921875000e+03  2.054268066406250000e+03  2.053988525390625000e+03  2.057152099609375000e+03  2.061054687500000000e+03  2.061474609375000000e+03  2.063074707031250000e+03  2.062281982421875000e+03  2.068544921875000000e+03  2.084650146484375000e+03  2.107810791015625000e+03  2.113161376953125000e+03  2.097071044921875000e+03  2.083132080078125000e+03  2.071736816406250000e+03  2.052499023437500000e+03  2.036974243164062500e+03  2.032744140625000000e+03  2.029365600585937500e+03
2.168641845703125000e+03  2.154198974609375000e+03  2.139206054687500000e+03  2.125215820312500000e+03  2.118207031250000000e+03  2.117803955078125000e+03  2.117803955078125000e+03  2.117803955078125000e+03  2.117803955078125000e+03  2.117803955078125000e+03  2.117803955078125000e+03  2.117803955078125000e+03  2.117803955078125000e+03  2.117803955078125000e+03  2.117803955078125000e+03  2.117803955078125000e+03  2.117803955078125000e+03  2.117803955078125000e+03  2.117803955078125000e+03  2.117803955078125000e+03  2.117803955078125000e+03  2.117803955078125000e+03  2.117803955078125000e+03  2.117803955078125000e+03  2.117803955078125000e+03  2.122393798828125000e+03  2.142536865234375000e+03  2.164452880859375000e+03  2.180355224609375000e+03  2.195314453125000000e+03  2.206338867187500000e+03  2.231332763671875000e+03  2.230612548828125000e+03  2.232094726562500000e+03  2.241709228515625000e+03  2.240068359375000000e+03  2.226655273437500000e+03  2.208601562500000000e+03  2.192876953125000000e+03  2.178733886718750000e+03  2.167979980468750000e+03  2.157671142578125000e+03  2.146335449218750000e+03  2.136979736328125000e+03  2.130211914062500000e+03  2.120755126953125000e+03  2.110407470703125000e+03  2.096514648437500000e+03  2.074759033203125000e+03  2.072041503906250000e+03  2.080493652343750000e+03  2.086137207031250000e+03  2.084770019531250000e+03  2.084899902343750000e+03  2.084892822265625000e+03  2.087751220703125000e+03  2.091627441406250000e+03  2.094285888671875000e+03  2.090707031250000000e+03  2.084543457031250000e+03  2.079550781250000000e+03  2.074111083984375000e+03  2.067206787109375000e+03  2.060639648437500000e+03  2.052094726562500000e+03  2.051152099609375000e+03  2.052687988281250000e+03  2.060342285156250000e+03  2.065896484375000000e+03  2.073255371093750000e+03  2.074423095703125000e+03  2.071893554687500000e+03  2.072152832031250000e+03  2.082134033203125000e+03  2.096436523437500000e+03  2.108463134765625000e+03  2.106118896484375000e+03  2.087746093750000000e+03  2.074648925781250000e+03  2.057228759765625000e+03  2.040998779296875000e+03  2.035097900390625000e+03  2.031790954589843750e+03
2.148970214843750000e+03  2.135022216796875000e+03  2.119860107421875000e+03  2.117803955078125000e+03  2.117803955078125000e+03  2.117803955078125000e+03  2.117803955078125000e+03  2.117803955078125000e+03  2.117803955078125000e+03  2.117803955078125000e+03  2.117803955078125000e+03  2.117803955078125000e+03  2.117803955078125000e+03  2.117803955078125000e+03  2.117803955078125000e+03  2.117803955078125000e+03  2.117803955078125000e+03  2.117803955078125000e+03  2.117803955078125000e+03  2.117803955078125000e+03  2.117803955078125000e+03  2.117803955078125000e+03  2.117803955078125000e+03  2.117803955078125000e+03  2.128123535156250000e+03  2.150037841796875000e+03  2.172102294921875000e+03  2.190589843750000000e+03  2.210068359375000000e+03  2.224192138671875000e+03  2.235911132812500000e+03  2.238404541015625000e+03  2.242888427734375000e+03  2.247537109375000000e+03  2.242327392578125000e+03  2.228856689453125000e+03  2.213331054687500000e+03  2.197394775390625000e+03  2.182847656250000000e+03  2.170254394531250000e+03  2.160382080078125000e+03  2.150860839843750000e+03  2.139029052734375000e+03  2.126575683593750000e+03  2.113809082031250000e+03  2.098769775390625000e+03  2.088612304687500000e+03  2.073691162109375000e+03  2.063154541015625000e+03  2.059291503906250000e+03  2.068630371093750000e+03  2.075874511718750000e+03  2.076538330078125000e+03  2.076193847656250000e+03  2.079705078125000000e+03  2.084848876953125000e+03  2.088553222656250000e+03  2.090844238281250000e+03  2.087408691406250000e+03  2.080824218750000000e+03  2.074542480468750000e+03  2.071327636718750000e+03  2.066595947265625000e+03  2.061388183593750000e+03  2.051300292968750000e+03  2.047945434570312500e+03  2.050939697265625000e+03  2.058169189453125000e+03  2.064951904296875000e+03  2.071001220703125000e+03  2.076389892578125000e+03  2.081474365234375000e+03  2.077300781250000000e+03  2.078521484375000000e+03  2.087230957031250000e+03  2.100239501953125000e+03  2.106364990234375000e+03  2.099116210937500000e+03  2.076966064453125000e+03  2.064606689453125000e+03  2.054902099609375000e+03  2.043646484375000000e+03  2.035508422851562500e+03
2.129026611328125000e+03  2.117935302734375000e+03  2.117803955078125000e+03  2.117803955078125000e+03  2.117803955078125000e+03  2.117803955078125000e+03  2.117803955078125000e+03  2.117803955078125000e+03  2.117803955078125000e+03  2.117803955078125000e+03  2.117803955078125000e+03  2.117803955078125000e+03  2.117803955078125000e+03  2.117803955078125000e+03  2.117803955078125000e+03  2.117803955078125000e+03  2.117803955078125000e+03  2.117803955078125000e+03  2.117803955078125000e+03  2.117803955078125000e+03  2.117803955078125000e+03  2.117803955078125000e+03  2.122376464843750000e+03  2.138569335937500000e+03  2.158958496093750000e+03  2.182545898437500000e+03  2.203679687500000000e+03  2.225271972656250000e+03  2.245913085937500000e+03  2.242775146484375000e+03  2.247894775390625000e+03  2.256714843750000000e+03  2.253108154296875000e+03  2.240163085937500000e+03  2.226284667968750000e+03  2.211901367187500000e+03  2.197194824218750000e+03  2.182316894531250000e+03  2.168774658203125000e+03  2.157348388671875000e+03  2.148415283203125000e+03  2.140444335937500000e+03  2.133196533203125000e+03  2.121493896484375000e+03  2.108452148437500000e+03  2.090466308593750000e+03  2.074180175781250000e+03  2.061450683593750000e+03  2.053833740234375000e+03  2.049123535156250000e+03  2.058583740234375000e+03  2.063932128906250000e+03  2.064926269531250000e+03  2.067805908203125000e+03  2.074408691406250000e+03  2.081002441406250000e+03  2.085466796875000000e+03  2.088524414062500000e+03  2.087740722656250000e+03  2.078614501953125000e+03  2.071740966796875000e+03  2.069084960937500000e+03  2.065995605468750000e+03  2.061353759765625000e+03  2.049396240234375000e+03  2.045776611328125000e+03  2.046694702148437500e+03  2.052986083984375000e+03  2.061178955078125000e+03  2.070976562500000000e+03  2.078806152343750000e+03  2.085233154296875000e+03  2.077391845703125000e+03  2.073606933593750000e+03  2.079427001953125000e+03  2.093185546875000000e+03  2.102451660156250000e+03  2.094710693359375000e+03  2.077357666015625000e+03  2.067036132812500000e+03  2.058178466796875000e+03  2.047171630859375000e+03  2.035921081542968750e+03
2.117803955078125000e+03  2.117803955078125000e+03  2.117803955078125000e+03  2.117803955078125000e+03  2.117803955078125000e+03  2.117803955078125000e+03  2.117803955078125000e+03  2.117803955078125000e+03  2.117803955078125000e+03  2.117803955078125000e+03  2.117803955078125000e+03  2.117803955078125000e+03  2.117803955078125000e+03  2.117803955078125000e+03  2.117803955078125000e+03  2.117803955078125000e+03  2.117803955078125000e+03  2.117803955078125000e+03  2.117803955078125000e+03  2.117803955078125000e+03  2.118051757812500000e+03  2.129839599609375000e+03  2.152073974609375000e+03  2.172633300781250000e+03  2.190852294921875000e+03  2.212375976562500000e+03  2.240178222656250000e+03  2.263888427734375000e+03  2.261322998046875000e+03  2.253126464843750000e+03  2.254941406250000000e+03  2.246766601562500000e+03  2.235320556640625000e+03  2.222939208984375000e+03  2.209472656250000000e+03  2.193899902343750000e+03  2.180251708984375000e+03  2.166231201171875000e+03  2.152528808593750000e+03  2.143208740234375000e+03  2.134262207031250000e+03  2.124180419921875000e+03  2.117079833984375000e+03  2.110183349609375000e+03  2.101168212890625000e+03  2.091749267578125000e+03  2.074792480468750000e+03  2.059553955078125000e+03  2.047302124023437500e+03  2.041314208984375000e+03  2.047896972656250000e+03  2.051818603515625000e+03  2.053297119140625000e+03  2.059117919921875000e+03  2.071915039062500000e+03  2.076788330078125000e+03  2.080302001953125000e+03  2.084676513671875000e+03  2.086006835937500000e+03  2.076713867187500000e+03  2.070351806640625000e+03  2.066298095703125000e+03  2.064800292968750000e+03  2.062651367187500000e+03  2.050617675781250000e+03  2.045731323242187500e+03  2.045470092773437500e+03  2.046004760742187500e+03  2.055202636718750000e+03  2.066380371093750000e+03  2.076787353515625000e+03  2.087493408203125000e+03  2.079532226562500000e+03  2.065221435546875000e+03  2.066303466796875000e+03  2.076116943359375000e+03  2.085094482421875000e+03  2.078392333984375000e+03  2.069218750000000000e+03  2.060306884765625000e+03  2.052587402343750000e+03  2.042807128906250000e+03  2.033663696289062500e+03
2.117803955078125000e+03  2.117803955078125000e+03  2.117803955078125000e+03  2.117803955078125000e+03  2.117803955078125000e+03  2.117803955078125000e+03  2.117803955078125000e+03  2.117803955078125000e+03  2.117803955078125000e+03  2.117803955078125000e+03  2.117803955078125000e+03  2.117803955078125000e+03  2.117803955078125000e+03  2.117803955078125000e+03  2.117803955078125000e+03  2.117803955078125000e+03  2.117984619140625000e+03  2.120232910156250000e+03  2.119209472656250000e+03  2.126837646484375000e+03  2.141216064453125000e+03  2.159604980468750000e+03  2.184075195312500000e+03  2.203671875000000000e+03  2.221607910156250000e+03  2.246328125000000000e+03  2.267973876953125000e+03  2.272951904296875000e+03  2.257687988281250000e+03  2.236432617187500000e+03  2.224843505859375000e+03  2.223485595703125000e+03  2.213543457031250000e+03  2.202636962890625000e+03  2.191522216796875000e+03  2.178013671875000000e+03  2.164470947265625000e+03  2.150887207031250000e+03  2.136401123046875000e+03  2.122411376953125000e+03  2.116398925781250000e+03  2.110461181640625000e+03  2.102827636718750000e+03  2.095416015625000000e+03  2.089758056640625000e+03  2.084832519531250000e+03  2.075927490234375000e+03  2.058282470703125000e+03  2.044493041992187500e+03  2.034873046875000000e+03  2.035582153320312500e+03  2.039323242187500000e+03  2.041441772460937500e+03  2.047856933593750000e+03  2.062537841796875000e+03  2.070293945312500000e+03  2.073549316406250000e+03  2.076980468750000000e+03  2.078748291015625000e+03  2.074177978515625000e+03  2.064572998046875000e+03  2.062044677734375000e+03  2.062341064453125000e+03  2.061774902343750000e+03  2.057687744140625000e+03  2.050118652343750000e+03  2.049338867187500000e+03  2.045417358398437500e+03  2.047745483398437500e+03  2.058501220703125000e+03  2.067751464843750000e+03  2.076793212890625000e+03  2.072934082031250000e+03  2.055005371093750000e+03  2.051007812500000000e+03  2.054468750000000000e+03  2.059142822265625000e+03  2.061622314453125000e+03  2.059168701171875000e+03  2.052742187500000000e+03  2.045649658203125000e+03  2.039085449218750000e+03  2.032951171875000000e+03
2.117803955078125000e+03  2.117803955078125000e+03  2.117803955078125000e+03  2.117803955078125000e+03  2.117803955078125000e+03  2.117803955078125000e+03  2.117803955078125000e+03  2.117803955078125000e+03  2.117803955078125000e+03  2.117803955078125000e+03  2.117803955078125000e+03  2.117803955078125000e+03  2.117803955078125000e+03  2.117803955078125000e+03  2.117803955078125000e+03  2.118965332031250000e+03  2.128266845703125000e+03  2.133854980468750000e+03  2.141382080078125000e+03  2.156247558593750000e+03  2.175108642578125000e+03  2.197894531250000000e+03  2.217498535156250000e+03  2.241765380859375000e+03  2.268888916015625000e+03  2.277205078125000000e+03  2.272167480468750000e+03  2.251971923828125000e+03  2.234180664062500000e+03  2.209455078125000000e+03  2.197229492187500000e+03  2.198412841796875000e+03  2.192610839843750000e+03  2.184130615234375000e+03  2.173655761718750000e+03  2.161378906250000000e+03  2.147621826171875000e+03  2.130151367187500000e+03  2.115645507812500000e+03  2.106336669921875000e+03  2.101061523437500000e+03  2.095635253906250000e+03  2.086634277343750000e+03  2.079235351562500000e+03  2.077717285156250000e+03  2.075880126953125000e+03  2.070541503906250000e+03  2.059132324218750000e+03  2.042800537109375000e+03  2.033539550781250000e+03  2.026619873046875000e+03  2.025353759765625000e+03  2.030227050781250000e+03  2.038734375000000000e+03  2.051900146484375000e+03  2.063374023437500000e+03  2.067539550781250000e+03  2.070726806640625000e+03  2.072899902343750000e+03  2.067826904296875000e+03  2.060347167968750000e+03  2.057128417968750000e+03  2.057967285156250000e+03  2.058128906250000000e+03  2.058054687500000000e+03  2.057564208984375000e+03  2.051218750000000000e+03  2.049316406250000000e+03  2.043411621093750000e+03  2.048909179687500000e+03  2.057027343750000000e+03  2.061240722656250000e+03  2.059509765625000000e+03  2.046042602539062500e+03  2.036161132812500000e+03  2.035727172851562500e+03  2.040726440429687500e+03  2.049576904296875000e+03  2.050811767578125000e+03  2.044797607421875000e+03  2.037627197265625000e+03  2.037907714843750000e+03  2.034597839355468750e+03
2.117803955078125000e+03  2.117803955078125000e+03  2.117803955078125000e+03  2.117803955078125000e+03  2.117803955078125000e+03  2.117803955078125000e+03  2.117803955078125000e+03  2.117803955078125000e+03  2.117803955078125000e+03  2.117803955078125000e+03  2.117803955078125000e+03  2.118427978515625000e+03  2.119577392578125000e+03  2.120822509765625000e+03  2.131853271484375000e+03  2.140882324218750000e+03  2.151063476562500000e+03  2.162440917968750000e+03  2.180613525390625000e+03  2.192505859375000000e+03  2.214871582031250000e+03  2.234996826171875000e+03  2.254780029296875000e+03  2.279786132812500000e+03  2.284310791015625000e+03  2.269160156250000000e+03  2.248745605468750000e+03  2.230548583984375000e+03  2.212826660156250000e+03  2.190234130859375000e+03  2.172322265625000000e+03  2.176241210937500000e+03  2.174383056640625000e+03  2.166102294921875000e+03  2.155293212890625000e+03  2.144228271484375000e+03  2.124687744140625000e+03  2.109240478515625000e+03  2.099710449218750000e+03  2.091749755859375000e+03  2.085133300781250000e+03  2.078885498046875000e+03  2.071211669921875000e+03  2.066433349609375000e+03  2.067006835937500000e+03  2.066722167968750000e+03  2.063907714843750000e+03  2.057843505859375000e+03  2.046443847656250000e+03  2.037768798828125000e+03  2.026457397460937500e+03  2.019596923828125000e+03  2.022474365234375000e+03  2.030688232421875000e+03  2.042863891601562500e+03  2.055421386718750000e+03  2.061602050781250000e+03  2.064169677734375000e+03  2.063552001953125000e+03  2.059470214843750000e+03  2.055230224609375000e+03  2.051233398437500000e+03  2.051333007812500000e+03  2.052010498046875000e+03  2.057543701171875000e+03  2.057975830078125000e+03  2.055209960937500000e+03  2.052645507812500000e+03  2.041836303710937500e+03  2.042734985351562500e+03  2.048230957031250000e+03  2.051354980468750000e+03  2.049942871093750000e+03  2.043337280273437500e+03  2.033664794921875000e+03  2.031824951171875000e+03  2.033770385742187500e+03  2.036516845703125000e+03  2.040284912109375000e+03  2.037571044921875000e+03  2.036322387695312500e+03  2.037338745117187500e+03  2.036657226562500000e+03
2.117803955078125000e+03  2.117803955078125000e+03  2.117803955078125000e+03  2.117803955078125000e+03  2.117803955078125000e+03  2.117803955078125000e+03  2.117803955078125000e+03  2.117803955078125000e+03  2.117803955078125000e+03  2.122864746093750000e+03  2.129738525390625000e+03  2.133142822265625000e+03  2.139499023437500000e+03  2.149673828125000000e+03  2.160242431640625000e+03  2.170286865234375000e+03  2.186661132812500000e+03  2.203856689453125000e+03  2.223270996093750000e+03  2.238800048828125000e+03  2.258172607421875000e+03  2.270728759765625000e+03  2.277374511718750000e+03  2.281271972656250000e+03  2.268509277343750000e+03  2.245274169921875000e+03  2.225749755859375000e+03  2.209460449218750000e+03  2.195133300781250000e+03  2.177402587890625000e+03  2.165891845703125000e+03  2.161123046875000000e+03  2.159093505859375000e+03  2.150807373046875000e+03  2.139554687500000000e+03  2.125542968750000000e+03  2.109835937500000000e+03  2.095887451171875000e+03  2.086470947265625000e+03  2.078101806640625000e+03  2.070258789062500000e+03  2.062749511718750000e+03  2.058128662109375000e+03  2.054858642578125000e+03  2.056027099609375000e+03  2.057170410156250000e+03  2.057072021484375000e+03  2.053361328125000000e+03  2.048359130859375000e+03  2.039537841796875000e+03  2.028378662109375000e+03  2.015531494140625000e+03  2.016443603515625000e+03  2.023534790039062500e+03  2.034509399414062500e+03  2.045277587890625000e+03  2.051182373046875000e+03  2.055067138671875000e+03  2.053666503906250000e+03  2.052357910156250000e+03  2.050668212890625000e+03  2.046298095703125000e+03  2.045380004882812500e+03  2.046874023437500000e+03  2.053080078125000000e+03  2.058034912109375000e+03  2.057622070312500000e+03  2.055848144531250000e+03  2.040133789062500000e+03  2.036507690429687500e+03  2.041617309570312500e+03  2.044764892578125000e+03  2.044509277343750000e+03  2.041659057617187500e+03  2.034406494140625000e+03  2.027695068359375000e+03  2.028227294921875000e+03  2.032603515625000000e+03  2.035934814453125000e+03  2.036873779296875000e+03  2.037296630859375000e+03  2.039538940429687500e+03  2.038808227539062500e+03
2.117803955078125000e+03  2.117803955078125000e+03  2.117803955078125000e+03  2.117803955078125000e+03  2.117803955078125000e+03  2.117803955078125000e+03  2.117803955078125000e+03  2.121454345703125000e+03  2.138513916015625000e+03  2.147418212890625000e+03  2.153679687500000000e+03  2.159346679687500000e+03  2.170002441406250000e+03  2.181887451171875000e+03  2.193761474609375000e+03  2.210201904296875000e+03  2.229820068359375000e+03  2.247080566406250000e+03  2.272972656250000000e+03  2.289336914062500000e+03  2.298760253906250000e+03  2.292709716796875000e+03  2.274674316406250000e+03  2.264121826171875000e+03  2.245485351562500000e+03  2.220485595703125000e+03  2.202964355468750000e+03  2.191523437500000000e+03  2.179336425781250000e+03  2.168063232421875000e+03  2.158413085937500000e+03  2.151415283203125000e+03  2.144008789062500000e+03  2.136658203125000000e+03  2.125314208984375000e+03  2.111791992187500000e+03  2.097916992187500000e+03  2.085224609375000000e+03  2.073403808593750000e+03  2.066320068359375000e+03  2.058474365234375000e+03  2.050589355468750000e+03  2.046586669921875000e+03  2.044524169921875000e+03  2.046299804687500000e+03  2.047520385742187500e+03  2.049085205078125000e+03  2.048860595703125000e+03  2.044454467773437500e+03  2.037954223632812500e+03  2.028657714843750000e+03  2.016097900390625000e+03  2.009505615234375000e+03  2.017412353515625000e+03  2.028575073242187500e+03  2.036567260742187500e+03  2.040354614257812500e+03  2.043279052734375000e+03  2.044357421875000000e+03  2.045400146484375000e+03  2.044358764648437500e+03  2.039468505859375000e+03  2.038514648437500000e+03  2.040496948242187500e+03  2.048867187500000000e+03  2.056974121093750000e+03  2.055716796875000000e+03  2.051056152343750000e+03  2.043223632812500000e+03  2.030725341796875000e+03  2.036458984375000000e+03  2.040072021484375000e+03  2.039954956054687500e+03  2.038627807617187500e+03  2.032221923828125000e+03  2.024367675781250000e+03  2.025438598632812500e+03  2.030847045898437500e+03  2.037320800781250000e+03  2.039490722656250000e+03  2.039916259765625000e+03  2.039020629882812500e+03  2.037088806152343750e+03
2.117803955078125000e+03  2.117803955078125000e+03  2.117803955078125000e+03  2.117803955078125000e+03  2.117803955078125000e+03  2.117803955078125000e+03  2.127329101562500000e+03  2.151892089843750000e+03  2.164937011718750000e+03  2.172297607421875000e+03  2.179496826171875000e+03  2.191044677734375000e+03  2.204239501953125000e+03  2.221184082031250000e+03  2.239529296875000000e+03  2.256879638671875000e+03  2.271531738281250000e+03  2.293562011718750000e+03  2.303183349609375000e+03  2.316844726562500000e+03  2.308011230468750000e+03  2.281894287109375000e+03  2.259018066406250000e+03  2.240768798828125000e+03  2.219578613281250000e+03  2.198266357421875000e+03  2.186422119140625000e+03  2.176070068359375000e+03  2.166191162109375000e+03  2.156985595703125000e+03  2.150156005859375000e+03  2.144342773437500000e+03  2.134348144531250000e+03  2.123344238281250000e+03  2.114664306640625000e+03  2.103704589843750000e+03  2.089322021484375000e+03  2.074028808593750000e+03  2.062669921875000000e+03  2.055558837890625000e+03  2.048422851562500000e+03  2.041695190429687500e+03  2.036252685546875000e+03  2.035499633789062500e+03  2.036777832031250000e+03  2.038180664062500000e+03  2.040299316406250000e+03  2.041705810546875000e+03  2.038395385742187500e+03  2.033808105468750000e+03  2.025957885742187500e+03  2.014143798828125000e+03  2.004932983398437500e+03  2.012474365234375000e+03  2.025734741210937500e+03  2.028617919921875000e+03  2.029336059570312500e+03  2.032366210937500000e+03  2.034791748046875000e+03  2.038951293945312500e+03  2.039327758789062500e+03  2.033758544921875000e+03  2.031580566406250000e+03  2.035071166992187500e+03  2.044020874023437500e+03  2.051736083984375000e+03  2.049392578125000000e+03  2.045056396484375000e+03  2.040310668945312500e+03  2.025246582031250000e+03  2.026395263671875000e+03  2.035391967773437500e+03  2.035603149414062500e+03  2.034439086914062500e+03  2.028021484375000000e+03  2.022869262695312500e+03  2.023920043945312500e+03  2.029716552734375000e+03  2.037443969726562500e+03  2.041222167968750000e+03  2.040041381835937500e+03  2.032862304687500000e+03  2.026643493652343750e+03
2.117803955078125000e+03  2.117803955078125000e+03  2.117803955078125000e+03  2.117803955078125000e+03  2.117803955078125000e+03  2.136874755859375000e+03  2.158057617187500000e+03  2.180022216796875000e+03  2.198304687500000000e+03  2.200137695312500000e+03  2.207912841796875000e+03  2.225280761718750000e+03  2.241030761718750000e+03  2.272244628906250000e+03  2.298118652343750000e+03  2.319231689453125000e+03  2.318641113281250000e+03  2.321214111328125000e+03  2.323185302734375000e+03  2.316640136718750000e+03  2.293673339843750000e+03  2.266442138671875000e+03  2.240227294921875000e+03  2.217451171875000000e+03  2.196857177734375000e+03  2.183786865234375000e+03  2.172298828125000000e+03  2.163630615234375000e+03  2.155116943359375000e+03  2.146130859375000000e+03  2.139142578125000000e+03  2.134336669921875000e+03  2.126018798828125000e+03  2.113372558593750000e+03  2.107316162109375000e+03  2.099429443359375000e+03  2.085414794921875000e+03  2.067827636718750000e+03  2.056153320312500000e+03  2.048394042968750000e+03  2.042186157226562500e+03  2.035849243164062500e+03  2.031331787109375000e+03  2.028541748046875000e+03  2.028958374023437500e+03  2.030199584960937500e+03  2.032276733398437500e+03  2.034039428710937500e+03  2.033098266601562500e+03  2.029044189453125000e+03  2.022890502929687500e+03  2.009692504882812500e+03  2.000076416015625000e+03  2.005096069335937500e+03  2.017138061523437500e+03  2.018357788085937500e+03  2.019017089843750000e+03  2.021778930664062500e+03  2.026526733398437500e+03  2.031509399414062500e+03  2.032254394531250000e+03  2.026029174804687500e+03  2.023226440429687500e+03  2.029724243164062500e+03  2.038964721679687500e+03  2.045604370117187500e+03  2.043697021484375000e+03  2.038135498046875000e+03  2.034964721679687500e+03  2.022719604492187500e+03  2.012055297851562500e+03  2.022942260742187500e+03  2.028912231445312500e+03  2.029329467773437500e+03  2.025415771484375000e+03  2.021485839843750000e+03  2.022357177734375000e+03  2.027058105468750000e+03  2.035857788085937500e+03  2.039553955078125000e+03  2.034110473632812500e+03  2.017653320312500000e+03  2.005139221191406250e+03
2.117803955078125000e+03  2.117803955078125000e+03  2.117803955078125000e+03  2.121473144531250000e+03  2.143931396484375000e+03  2.170426269531250000e+03  2.193046630859375000e+03  2.222542968750000000e+03  2.241179931640625000e+03  2.231297607421875000e+03  2.237044189453125000e+03  2.256847900390625000e+03  2.287697021484375000e+03  2.324135986328125000e+03  2.345797119140625000e+03  2.353288330078125000e+03  2.349969238281250000e+03  2.334391601562500000e+03  2.316066406250000000e+03  2.296785400390625000e+03  2.279301269531250000e+03  2.255259033203125000e+03  2.227038574218750000e+03  2.200485351562500000e+03  2.178551269531250000e+03  2.169276611328125000e+03  2.161625244140625000e+03  2.152838134765625000e+03  2.145169189453125000e+03  2.137458007812500000e+03  2.130128417968750000e+03  2.124673339843750000e+03  2.118966796875000000e+03  2.109140136718750000e+03  2.101527832031250000e+03  2.093464843750000000e+03  2.079338134765625000e+03  2.064173828125000000e+03  2.051086669921875000e+03  2.042556884765625000e+03  2.036061157226562500e+03  2.030844482421875000e+03  2.026809326171875000e+03  2.023187255859375000e+03  2.022303710937500000e+03  2.022721069335937500e+03  2.024928710937500000e+03  2.026360961914062500e+03  2.027055908203125000e+03  2.025485595703125000e+03  2.019051635742187500e+03  2.007454956054687500e+03  1.997189819335937500e+03  1.996735839843750000e+03  2.001247680664062500e+03  2.003426147460937500e+03  2.008041381835937500e+03  2.011655273437500000e+03  2.016640869140625000e+03  2.021046508789062500e+03  2.022201660156250000e+03  2.015994873046875000e+03  2.013510498046875000e+03  2.022452880859375000e+03  2.031424438476562500e+03  2.038186889648437500e+03  2.037151489257812500e+03  2.032429687500000000e+03  2.028997802734375000e+03  2.019514404296875000e+03  2.007810302734375000e+03  2.017401245117187500e+03  2.025880737304687500e+03  2.026985839843750000e+03  2.023497436523437500e+03  2.019611206054687500e+03  2.019532104492187500e+03  2.023263671875000000e+03  2.028383544921875000e+03  2.029149047851562500e+03  2.019764160156250000e+03  1.998601440429687500e+03  1.977873107910156250e+03
2.117803955078125000e+03  2.117803955078125000e+03  2.132380859375000000e+03  2.155409912109375000e+03  2.179294433593750000e+03  2.208863037109375000e+03  2.239478027343750000e+03  2.286212890625000000e+03  2.276569580078125000e+03  2.266046386718750000e+03  2.272605712890625000e+03  2.291825927734375000e+03  2.318913574218750000e+03  2.346419189453125000e+03  2.364587646484375000e+03  2.378465576171875000e+03  2.361380615234375000e+03  2.326777343750000000e+03  2.300360839843750000e+03  2.283461914062500000e+03  2.268808105468750000e+03  2.247353027343750000e+03  2.220110351562500000e+03  2.190922851562500000e+03  2.168590820312500000e+03  2.158032470703125000e+03  2.151648925781250000e+03  2.143191894531250000e+03  2.135656494140625000e+03  2.128930908203125000e+03  2.122039550781250000e+03  2.116944091796875000e+03  2.112897705078125000e+03  2.106368896484375000e+03  2.099921142578125000e+03  2.086632812500000000e+03  2.072296386718750000e+03  2.059322265625000000e+03  2.048708496093750000e+03  2.040551757812500000e+03  2.040623413085937500e+03  2.038688842773437500e+03  2.033168579101562500e+03  2.025500244140625000e+03  2.019293823242187500e+03  2.016978881835937500e+03  2.016874389648437500e+03  2.016027832031250000e+03  2.018053588867187500e+03  2.018618041992187500e+03  2.014948730468750000e+03  2.006957641601562500e+03  1.997547729492187500e+03  1.991430541992187500e+03  1.991746337890625000e+03  1.992894897460937500e+03  1.993899414062500000e+03  1.998520019531250000e+03  2.003798217773437500e+03  2.006179565429687500e+03  2.005943847656250000e+03  2.001628051757812500e+03  2.004627807617187500e+03  2.012449829101562500e+03  2.021405395507812500e+03  2.027061401367187500e+03  2.025829101562500000e+03  2.025179443359375000e+03  2.023015502929687500e+03  2.006160888671875000e+03  2.003027832031250000e+03  2.014736938476562500e+03  2.021445434570312500e+03  2.023648071289062500e+03  2.020985961914062500e+03  2.016226806640625000e+03  2.013577758789062500e+03  2.016684448242187500e+03  2.019372558593750000e+03  2.017104370117187500e+03  2.001250488281250000e+03  1.974200805664062500e+03  1.958002258300781250e+03
2.119444091796875000e+03  2.138200927734375000e+03  2.160421142578125000e+03  2.191774414062500000e+03  2.222409667968750000e+03  2.252938232421875000e+03  2.290563720703125000e+03  2.325253906250000000e+03  2.308136718750000000e+03  2.307631103515625000e+03  2.312896972656250000e+03  2.316831787109375000e+03  2.333612060546875000e+03  2.358772949218750000e+03  2.383614013671875000e+03  2.377834472656250000e+03  2.352120117187500000e+03  2.316969482421875000e+03  2.290716064453125000e+03  2.276685058593750000e+03  2.262654785156250000e+03  2.239386230468750000e+03  2.215796630859375000e+03  2.191483642578125000e+03  2.168010742187500000e+03  2.151301513671875000e+03  2.142465087890625000e+03  2.134208251953125000e+03  2.127504150390625000e+03  2.121569824218750000e+03  2.115723632812500000e+03  2.111296875000000000e+03  2.105745117187500000e+03  2.098607666015625000e+03  2.090596923828125000e+03  2.077944580078125000e+03  2.063298095703125000e+03  2.053903320312500000e+03  2.048766845703125000e+03  2.050443847656250000e+03  2.050612548828125000e+03  2.055051513671875000e+03  2.046506103515625000e+03  2.033614624023437500e+03  2.022545898437500000e+03  2.016225952148437500e+03  2.011982666015625000e+03  2.008244506835937500e+03  2.003800415039062500e+03  2.007411499023437500e+03  2.005915771484375000e+03  2.002781372070312500e+03  1.996410400390625000e+03  1.990855957031250000e+03  1.987881958007812500e+03  1.984527343750000000e+03  1.984413452148437500e+03  1.985455688476562500e+03  1.987877685546875000e+03  1.991046386718750000e+03  1.991099487304687500e+03  1.990247680664062500e+03  1.996403198242187500e+03  2.003546020507812500e+03  2.009311523437500000e+03  2.012690185546875000e+03  2.010558471679687500e+03  2.006284179687500000e+03  2.001060302734375000e+03  1.986588134765625000e+03  1.992000244140625000e+03  2.005145385742187500e+03  2.014356811523437500e+03  2.016541748046875000e+03  2.017388916015625000e+03  2.014531372070312500e+03  2.009582153320312500e+03  2.009017333984375000e+03  2.011159179687500000e+03  2.008192993164062500e+03  1.979443359375000000e+03  1.953940185546875000e+03  1.938591308593750000e+03
2.144172363281250000e+03  2.167787109375000000e+03  2.196317626953125000e+03  2.230299072265625000e+03  2.271214355468750000e+03  2.315720947265625000e+03  2.346344482421875000e+03  2.367109375000000000e+03  2.351413085937500000e+03  2.345647460937500000e+03  2.343849853515625000e+03  2.338368896484375000e+03  2.348385498046875000e+03  2.369808837890625000e+03  2.375598876953125000e+03  2.361231933593750000e+03  2.343271728515625000e+03  2.317125244140625000e+03  2.282309326171875000e+03  2.268213378906250000e+03  2.254118408203125000e+03  2.232969726562500000e+03  2.211202392578125000e+03  2.191229736328125000e+03  2.172320312500000000e+03  2.153710693359375000e+03  2.142178710937500000e+03  2.132199707031250000e+03  2.124697265625000000e+03  2.116031738281250000e+03  2.109989501953125000e+03  2.103419189453125000e+03  2.097242675781250000e+03  2.088809814453125000e+03  2.078818847656250000e+03  2.069608642578125000e+03  2.062618164062500000e+03  2.054947509765625000e+03  2.057299072265625000e+03  2.070200439453125000e+03  2.075677978515625000e+03  2.076465820312500000e+03  2.067253906250000000e+03  2.044012084960937500e+03  2.026726074218750000e+03  2.019392700195312500e+03  2.015650756835937500e+03  2.014851074218750000e+03  2.006260864257812500e+03  1.995459472656250000e+03  1.990099487304687500e+03  1.987153808593750000e+03  1.987317749023437500e+03  1.989305175781250000e+03  1.990613159179687500e+03  1.984267578125000000e+03  1.978598999023437500e+03  1.978780639648437500e+03  1.978089477539062500e+03  1.978963623046875000e+03  1.976944335937500000e+03  1.981237915039062500e+03  1.988574584960937500e+03  1.994161499023437500e+03  1.997424438476562500e+03  1.998066040039062500e+03  1.997478515625000000e+03  1.990033081054687500e+03  1.984717895507812500e+03  1.974038574218750000e+03  1.977898315429687500e+03  1.988662231445312500e+03  2.002879882812500000e+03  2.013882812500000000e+03  2.014898071289062500e+03  2.013612670898437500e+03  2.006985351562500000e+03  1.999272949218750000e+03  1.995854858398437500e+03  1.996961425781250000e+03  1.970208984375000000e+03  1.941161865234375000e+03  1.926262084960937500e+03
2.173188720703125000e+03  2.204291015625000000e+03  2.231805175781250000e+03  2.268023193359375000e+03  2.320744873046875000e+03  2.372378662109375000e+03  2.409498046875000000e+03  2.407638183593750000e+03  2.389924804687500000e+03  2.382047851562500000e+03  2.374875000000000000e+03  2.358297607421875000e+03  2.362530761718750000e+03  2.370113037109375000e+03  2.360714355468750000e+03  2.348824707031250000e+03  2.335278808593750000e+03  2.311769042968750000e+03  2.280016357421875000e+03  2.259604003906250000e+03  2.242280273437500000e+03  2.224972167968750000e+03  2.208328369140625000e+03  2.189678955078125000e+03  2.173265380859375000e+03  2.160380859375000000e+03  2.147327636718750000e+03  2.134149169921875000e+03  2.124677001953125000e+03  2.116440917968750000e+03  2.107877197265625000e+03  2.098860595703125000e+03  2.091397949218750000e+03  2.084329101562500000e+03  2.079627441406250000e+03  2.076065429687500000e+03  2.066009277343750000e+03  2.059055664062500000e+03  2.064762451171875000e+03  2.076660400390625000e+03  2.079528564453125000e+03  2.078761230468750000e+03  2.067500976562500000e+03  2.051859130859375000e+03  2.036974121093750000e+03  2.024201293945312500e+03  2.022494262695312500e+03  2.018960693359375000e+03  2.009145507812500000e+03  1.998474731445312500e+03  1.992697875976562500e+03  1.989266479492187500e+03  1.984770263671875000e+03  1.981842773437500000e+03  1.979701660156250000e+03  1.976929077148437500e+03  1.975481079101562500e+03  1.974808715820312500e+03  1.974000366210937500e+03  1.973607666015625000e+03  1.973352783203125000e+03  1.975569824218750000e+03  1.981541503906250000e+03  1.985694946289062500e+03  1.986057128906250000e+03  1.984511840820312500e+03  1.984121337890625000e+03  1.977333862304687500e+03  1.972202148437500000e+03  1.964997802734375000e+03  1.966905517578125000e+03  1.974413940429687500e+03  1.986745605468750000e+03  1.998906982421875000e+03  2.002132446289062500e+03  2.001338134765625000e+03  2.001552612304687500e+03  1.990427124023437500e+03  1.974116943359375000e+03  1.967178344726562500e+03  1.951762329101562500e+03  1.927490478515625000e+03  1.921564758300781250e+03
2.208098144531250000e+03  2.235270263671875000e+03  2.270620361328125000e+03  2.315311767578125000e+03  2.357839599609375000e+03  2.405209960937500000e+03  2.450083007812500000e+03  2.436500244140625000e+03  2.426076416015625000e+03  2.419485595703125000e+03  2.404658203125000000e+03  2.382369628906250000e+03  2.372318847656250000e+03  2.366397460937500000e+03  2.352352539062500000e+03  2.340509765625000000e+03  2.327511230468750000e+03  2.308379394531250000e+03  2.277339111328125000e+03  2.260263427734375000e+03  2.240333740234375000e+03  2.220969238281250000e+03  2.204120117187500000e+03  2.185907470703125000e+03  2.170407714843750000e+03  2.159781005859375000e+03  2.147985107421875000e+03  2.135420166015625000e+03  2.127548095703125000e+03  2.122019042968750000e+03  2.113974853515625000e+03  2.104588378906250000e+03  2.096961914062500000e+03  2.091842529296875000e+03  2.087161376953125000e+03  2.085082031250000000e+03  2.073588134765625000e+03  2.063367919921875000e+03  2.066037597656250000e+03  2.075218505859375000e+03  2.080732910156250000e+03  2.076124023437500000e+03  2.061990722656250000e+03  2.051329345703125000e+03  2.040345581054687500e+03  2.030060424804687500e+03  2.030056030273437500e+03  2.025502319335937500e+03  2.010586791992187500e+03  2.001009033203125000e+03  1.996213623046875000e+03  1.991545532226562500e+03  1.987092529296875000e+03  1.983950439453125000e+03  1.981355468750000000e+03  1.979025756835937500e+03  1.975970214843750000e+03  1.973909912109375000e+03  1.972759155273437500e+03  1.971607055664062500e+03  1.969990600585937500e+03  1.968922363281250000e+03  1.973006225585937500e+03  1.974597412109375000e+03  1.974065795898437500e+03  1.970894897460937500e+03  1.965337890625000000e+03  1.961828002929687500e+03  1.959280029296875000e+03  1.958054199218750000e+03  1.957645019531250000e+03  1.961059692382812500e+03  1.967578125000000000e+03  1.972712768554687500e+03  1.975322631835937500e+03  1.975573242187500000e+03  1.973939331054687500e+03  1.965380371093750000e+03  1.951111816406250000e+03  1.941600097656250000e+03  1.930420532226562500e+03  1.923487060546875000e+03  1.926412658691406250e+03
2.240466796875000000e+03  2.275016357421875000e+03  2.325942626953125000e+03  2.367423339843750000e+03  2.402883789062500000e+03  2.435694091796875000e+03  2.465341064453125000e+03  2.462603515625000000e+03  2.450189208984375000e+03  2.432530761718750000e+03  2.412305419921875000e+03  2.392358398437500000e+03  2.372871337890625000e+03  2.359227294921875000e+03  2.345222167968750000e+03  2.335162597656250000e+03  2.322832275390625000e+03  2.305852294921875000e+03  2.281755371093750000e+03  2.266352050781250000e+03  2.244537841796875000e+03  2.228022460937500000e+03  2.213076660156250000e+03  2.193343505859375000e+03  2.176521484375000000e+03  2.169875976562500000e+03  2.158172851562500000e+03  2.142794677734375000e+03  2.132456298828125000e+03  2.126508789062500000e+03  2.117989257812500000e+03  2.110459472656250000e+03  2.104966552734375000e+03  2.100188964843750000e+03  2.094705078125000000e+03  2.091282470703125000e+03  2.081448974609375000e+03  2.069331298828125000e+03  2.069627929687500000e+03  2.074388183593750000e+03  2.081395996093750000e+03  2.074252685546875000e+03  2.059940673828125000e+03  2.050652099609375000e+03  2.041626464843750000e+03  2.037654052734375000e+03  2.041010131835937500e+03  2.035624511718750000e+03  2.020080688476562500e+03  2.008716796875000000e+03  1.999874511718750000e+03  1.995341186523437500e+03  1.990065551757812500e+03  1.986945312500000000e+03  1.985478027343750000e+03  1.983705078125000000e+03  1.979650634765625000e+03  1.975934692382812500e+03  1.974960937500000000e+03  1.973570800781250000e+03  1.972232055664062500e+03  1.969105590820312500e+03  1.967293579101562500e+03  1.964035522460937500e+03  1.964179565429687500e+03  1.962609741210937500e+03  1.960254394531250000e+03  1.959245727539062500e+03  1.955109252929687500e+03  1.951512329101562500e+03  1.949308959960937500e+03  1.948000244140625000e+03  1.949940795898437500e+03  1.953322143554687500e+03  1.954377807617187500e+03  1.953681762695312500e+03  1.952218383789062500e+03  1.942880981445312500e+03  1.936125854492187500e+03  1.931387695312500000e+03  1.925747192382812500e+03  1.926197631835937500e+03  1.935978210449218750e+03
2.279238281250000000e+03  2.325263671875000000e+03  2.370632568359375000e+03  2.409180664062500000e+03  2.443464843750000000e+03  2.469266845703125000e+03  2.481467041015625000e+03  2.476525878906250000e+03  2.459532226562500000e+03  2.432042480468750000e+03  2.410401367187500000e+03  2.388178222656250000e+03  2.372166015625000000e+03  2.354836669921875000e+03  2.342046386718750000e+03  2.333281982421875000e+03  2.320715576171875000e+03  2.305111572265625000e+03  2.289355224609375000e+03  2.274151123046875000e+03  2.255683593750000000e+03  2.233649169921875000e+03  2.215164306640625000e+03  2.196515625000000000e+03  2.184580078125000000e+03  2.180152587890625000e+03  2.167826171875000000e+03  2.152230712890625000e+03  2.140928222656250000e+03  2.132821289062500000e+03  2.123254638671875000e+03  2.117439453125000000e+03  2.112371826171875000e+03  2.105493652343750000e+03  2.100391357421875000e+03  2.097694091796875000e+03  2.088023925781250000e+03  2.072716796875000000e+03  2.072510986328125000e+03  2.079208007812500000e+03  2.086229980468750000e+03  2.083134033203125000e+03  2.067097656250000000e+03  2.055928222656250000e+03  2.046848999023437500e+03  2.048753173828125000e+03  2.053721679687500000e+03  2.051237060546875000e+03  2.036866455078125000e+03  2.017317382812500000e+03  2.007137573242187500e+03  2.000259643554687500e+03  1.995977050781250000e+03  1.992703613281250000e+03  1.991282592773437500e+03  1.988842895507812500e+03  1.988217773437500000e+03  1.985978637695312500e+03  1.984708618164062500e+03  1.979612548828125000e+03  1.975304931640625000e+03  1.975223022460937500e+03  1.980468139648437500e+03  1.990703735351562500e+03  1.996105102539062500e+03  1.994549926757812500e+03  1.981295532226562500e+03  1.963813110351562500e+03  1.954104003906250000e+03  1.949837280273437500e+03  1.946538208007812500e+03  1.943304443359375000e+03  1.940792602539062500e+03  1.940591064453125000e+03  1.940705200195312500e+03  1.939914062500000000e+03  1.937639404296875000e+03  1.933326049804687500e+03  1.930691284179687500e+03  1.927777465820312500e+03  1.926985595703125000e+03  1.934601562500000000e+03  1.947045715332031250e+03
2.325052734375000000e+03  2.376499511718750000e+03  2.416211181640625000e+03  2.446551269531250000e+03  2.476143066406250000e+03  2.499843750000000000e+03  2.502665527343750000e+03  2.488826416015625000e+03  2.459328857421875000e+03  2.433231933593750000e+03  2.410623046875000000e+03  2.388724853515625000e+03  2.370500976562500000e+03  2.356259521484375000e+03  2.344104736328125000e+03  2.334586914062500000e+03  2.325172607421875000e+03  2.313621337890625000e+03  2.299950927734375000e+03  2.281599121093750000e+03  2.259826171875000000e+03  2.239161621093750000e+03  2.220017089843750000e+03  2.206533447265625000e+03  2.203798583984375000e+03  2.199407470703125000e+03  2.181773437500000000e+03  2.165137939453125000e+03  2.152144287109375000e+03  2.139800537109375000e+03  2.131491210937500000e+03  2.124860839843750000e+03  2.117214599609375000e+03  2.110765625000000000e+03  2.105846435546875000e+03  2.101754150390625000e+03  2.091784667968750000e+03  2.077554687500000000e+03  2.082168945312500000e+03  2.089580078125000000e+03  2.093115722656250000e+03  2.091256347656250000e+03  2.083503662109375000e+03  2.066807617187500000e+03  2.054938476562500000e+03  2.057466796875000000e+03  2.065960449218750000e+03  2.060287841796875000e+03  2.044972167968750000e+03  2.026510864257812500e+03  2.016144409179687500e+03  2.008869262695312500e+03  2.004410156250000000e+03  2.003027343750000000e+03  2.000208129882812500e+03  2.001162597656250000e+03  2.003905273437500000e+03  2.001263183593750000e+03  2.005620117187500000e+03  1.995330566406250000e+03  1.982913085937500000e+03  1.981180297851562500e+03  1.989958740234375000e+03  2.002932495117187500e+03  2.008127441406250000e+03  2.010028808593750000e+03  2.008963134765625000e+03  1.994372070312500000e+03  1.964259643554687500e+03  1.955626464843750000e+03  1.950559936523437500e+03  1.946001464843750000e+03  1.942413330078125000e+03  1.939573242187500000e+03  1.936666137695312500e+03  1.935388305664062500e+03  1.933806518554687500e+03  1.932295166015625000e+03  1.930498046875000000e+03  1.931172119140625000e+03  1.935372924804687500e+03  1.943450195312500000e+03  1.958098205566406250e+03
2.342251464843750000e+03  2.390385742187500000e+03  2.447275146484375000e+03  2.480365722656250000e+03  2.504791992187500000e+03  2.523767822265625000e+03  2.522382080078125000e+03  2.506942138671875000e+03  2.472931884765625000e+03  2.445450439453125000e+03  2.420193115234375000e+03  2.393386962890625000e+03  2.372517822265625000e+03  2.358333740234375000e+03  2.349224121093750000e+03  2.342594726562500000e+03  2.337488525390625000e+03  2.328054931640625000e+03  2.312233154296875000e+03  2.287481445312500000e+03  2.264788574218750000e+03  2.248698242187500000e+03  2.231730224609375000e+03  2.217701660156250000e+03  2.211737792968750000e+03  2.205626220703125000e+03  2.194088134765625000e+03  2.173194824218750000e+03  2.158672363281250000e+03  2.147094238281250000e+03  2.139361083984375000e+03  2.130727783203125000e+03  2.121445312500000000e+03  2.114870361328125000e+03  2.110251953125000000e+03  2.104521484375000000e+03  2.094061279296875000e+03  2.083479248046875000e+03  2.096162353515625000e+03  2.101693359375000000e+03  2.101551513671875000e+03  2.098730224609375000e+03  2.091730224609375000e+03  2.077207031250000000e+03  2.066138916015625000e+03  2.064999755859375000e+03  2.074495361328125000e+03  2.073779785156250000e+03  2.059829101562500000e+03  2.043674804687500000e+03  2.024861938476562500e+03  2.021016723632812500e+03  2.016822509765625000e+03  2.017802978515625000e+03  2.020395996093750000e+03  2.019582763671875000e+03  2.022478149414062500e+03  2.020828002929687500e+03  2.018328125000000000e+03  2.001602783203125000e+03  1.991003051757812500e+03  1.987971069335937500e+03  1.999124511718750000e+03  2.009653808593750000e+03  2.016416748046875000e+03  2.018347290039062500e+03  2.016796264648437500e+03  2.003153442382812500e+03  1.978413696289062500e+03  1.962472778320312500e+03  1.955408691406250000e+03  1.949918457031250000e+03  1.944988037109375000e+03  1.941931274414062500e+03  1.939724609375000000e+03  1.938918334960937500e+03  1.937686035156250000e+03  1.937074951171875000e+03  1.936273803710937500e+03  1.937560058593750000e+03  1.942373535156250000e+03  1.950626098632812500e+03  1.970197814941406250e+03
